-4.379583, -3.383324, -2.633954, 
-4.374874, -3.365643, -2.622874, 
-4.378511, -3.348082, -2.632013, 
-4.372559, -3.330381, -2.617927, 
-4.371019, -3.312746, -2.614520, 
-4.379463, -3.295252, -2.635293, 
-4.376202, -3.277592, -2.627729, 
-4.384121, -3.260090, -2.647222, 
-4.394812, -3.242630, -2.673436, 
-4.402514, -3.225124, -2.692415, 
-4.407639, -3.207584, -2.705145, 
-4.407187, -3.189962, -2.704381, 
-4.403177, -3.172289, -2.695003, 
-4.406879, -3.154726, -2.704293, 
-4.402500, -3.137047, -2.694014, 
-4.398941, -3.119381, -2.685734, 
-4.400591, -3.101789, -2.690047, 
-4.398335, -3.084139, -2.684914, 
-4.402061, -3.066578, -2.694264, 
-4.416061, -3.049164, -2.728488, 
-4.438833, -3.031874, -2.783949, 
-4.496378, -3.877724, -2.861601, 
-4.510187, -3.860304, -2.895392, 
-4.500837, -3.842554, -2.873106, 
-4.510046, -3.825077, -2.895725, 
-4.520977, -3.807617, -2.922533, 
-4.525917, -3.790073, -2.934850, 
-4.535435, -3.772600, -2.958223, 
-4.548216, -3.755175, -2.989486, 
-4.566750, -3.737831, -3.034687, 
-4.576742, -3.720364, -3.059210, 
-4.585499, -3.702879, -3.080729, 
-4.599106, -3.685465, -3.114000, 
-4.599756, -3.667862, -3.115903, 
-4.620592, -3.650551, -3.166667, 
-4.644619, -3.633286, -3.225164, 
-4.646997, -3.615707, -3.231245, 
-4.637016, -3.597952, -3.207404, 
-4.473019, -3.542747, -2.811333, 
-4.388130, -3.523911, -2.606143, 
-4.368988, -3.506021, -2.560122, 
-4.373045, -3.488466, -2.570272, 
-4.382919, -3.470997, -2.594506, 
-4.378061, -3.453312, -2.583064, 
-4.387054, -3.435829, -2.605165, 
-4.408855, -3.418530, -2.658273, 
-4.420385, -3.401085, -2.686511, 
-4.425310, -3.383541, -2.698765, 
-4.424263, -3.365911, -2.696554, 
-4.421803, -3.348261, -2.690926, 
-4.409332, -3.330467, -2.661057, 
-4.403473, -3.312769, -2.647195, 
-4.390879, -3.294971, -2.617035, 
-4.389935, -3.277344, -2.615079, 
-4.398153, -3.259850, -2.635303, 
-4.424004, -3.242607, -2.698215, 
-4.451286, -3.225388, -2.764598, 
-4.459574, -3.207890, -2.784987, 
-4.450600, -3.190144, -2.763590, 
-4.444878, -3.172447, -2.750069, 
-4.434235, -3.154678, -2.724622, 
-4.427143, -3.136961, -2.707777, 
-4.422470, -3.119276, -2.696797, 
-4.421295, -3.101643, -2.694276, 
-4.420677, -3.084019, -2.693112, 
-4.426208, -3.066483, -2.706833, 
-4.429806, -3.048916, -2.715867, 
-4.498533, -3.894920, -2.820601, 
-4.496708, -3.877283, -2.816507, 
-4.493399, -3.859627, -2.808826, 
-4.494802, -3.842033, -2.812576, 
-4.512535, -3.824671, -2.855827, 
-4.524704, -3.807230, -2.885642, 
-4.534876, -3.789757, -2.910649, 
-4.545145, -3.772295, -2.935840, 
-4.561909, -3.754929, -2.976746, 
-4.574574, -3.737501, -3.007740, 
-4.589365, -3.720102, -3.043876, 
-4.601406, -3.702665, -3.073344, 
-4.616468, -3.685270, -3.110136, 
-4.629728, -3.667850, -3.142568, 
-4.642443, -3.650421, -3.173676, 
-4.649536, -3.632914, -3.191177, 
-4.657173, -3.615412, -3.209995, 
-4.656456, -3.597788, -3.208578, 
-4.628050, -3.579765, -3.140129, 
-4.592394, -3.561640, -3.054128, 
-4.512735, -3.542877, -2.861597, 
-4.434010, -3.524128, -2.671323, 
-4.402880, -3.506067, -2.596282, 
-4.420118, -3.488701, -2.638344, 
-4.417528, -3.471050, -2.632397, 
-4.430313, -3.453623, -2.663672, 
-4.446404, -3.436243, -2.702958, 
-4.465309, -3.418901, -2.749062, 
-4.473669, -3.401409, -2.769623, 
-4.477749, -3.383854, -2.779827, 
-4.472536, -3.366165, -2.767537, 
-4.465931, -3.348455, -2.751868, 
-4.452642, -3.330650, -2.720018, 
-4.436424, -3.312801, -2.681082, 
-4.424307, -3.295012, -2.652075, 
-4.422016, -3.277365, -2.646853, 
-4.436087, -3.259953, -2.681244, 
-4.458246, -3.242657, -2.735222, 
-4.503544, -3.225697, -2.845223, 
-4.523731, -3.208372, -2.894422, 
-4.513727, -3.190613, -2.870527, 
-4.497015, -3.172756, -2.830400, 
-4.474577, -3.154818, -2.776400, 
-4.455923, -3.136930, -2.731560, 
-4.447231, -3.119190, -2.710847, 
-4.444319, -3.101532, -2.704118, 
-4.442541, -3.083889, -2.700147, 
-4.441872, -3.066263, -2.698855, 
-4.446775, -3.048717, -2.711051, 
-4.468800, -3.031420, -2.764704, 
-4.490755, -3.894361, -2.755874, 
-4.488895, -3.876724, -2.751704, 
-4.502134, -3.859308, -2.784082, 
-4.511623, -3.841833, -2.807374, 
-4.519402, -3.824335, -2.826536, 
-4.533028, -3.806910, -2.859889, 
-4.545835, -3.789484, -2.891264, 
-4.562595, -3.772108, -2.932168, 
-4.573690, -3.754652, -2.959385, 
-4.592010, -3.737307, -3.004061, 
-4.606619, -3.719908, -3.039752, 
-4.622501, -3.702524, -3.078530, 
-4.637966, -3.685137, -3.116293, 
-4.648199, -3.667671, -3.141397, 
-4.657984, -3.650202, -3.165407, 
-4.669079, -3.632750, -3.192599, 
-4.671181, -3.615168, -3.198014, 
-4.662411, -3.597431, -3.177105, 
-4.634453, -3.579414, -3.109745, 
-4.604038, -3.561363, -3.036431, 
-4.564531, -3.543180, -2.941108, 
-4.523424, -3.524973, -2.841909, 
-4.497742, -3.506992, -2.780056, 
-4.498825, -3.489393, -2.783005, 
-4.493702, -3.471706, -2.770929, 
-4.497959, -3.454157, -2.781557, 
-4.515936, -3.436802, -2.825408, 
-4.525852, -3.419333, -2.849743, 
-4.529257, -3.401768, -2.858311, 
-4.531271, -3.384182, -2.863512, 
-4.524975, -3.366476, -2.848599, 
-4.504951, -3.348576, -2.800441, 
-4.490910, -3.330757, -2.766781, 
-4.476198, -3.312931, -2.731486, 
-4.471199, -3.295244, -2.719707, 
-4.469318, -3.277603, -2.715478, 
-4.486269, -3.260233, -2.756840, 
-4.519192, -3.243093, -2.836884, 
-4.548836, -3.225906, -2.908982, 
-4.558762, -3.208433, -2.933337, 
-4.556744, -3.190790, -2.928777, 
-4.543690, -3.172985, -2.897507, 
-4.520210, -3.155031, -2.840979, 
-4.493042, -3.137024, -2.775531, 
-4.476576, -3.119169, -2.735996, 
-4.467262, -3.101419, -2.713772, 
-4.465221, -3.083773, -2.709160, 
-4.464411, -3.066145, -2.707528, 
-4.470825, -3.048622, -2.723380, 
-4.478340, -3.031115, -2.741906, 
-4.505182, -3.929346, -2.744271, 
-4.495728, -3.911600, -2.721704, 
-4.499758, -3.894047, -2.731785, 
-4.497833, -3.876411, -2.727448, 
-4.507944, -3.858946, -2.752256, 
-4.522554, -3.841547, -2.787947, 
-4.534189, -3.824104, -2.816442, 
-4.549746, -3.806713, -2.854465, 
-4.557381, -3.789206, -2.873299, 
-4.573530, -3.771830, -2.912720, 
-4.585745, -3.754389, -2.942645, 
-4.604879, -3.737049, -2.989321, 
-4.619917, -3.719654, -3.026057, 
-4.641075, -3.702349, -3.077605, 
-4.653009, -3.684908, -3.106827, 
-4.668722, -3.667524, -3.145190, 
-4.683355, -3.650124, -3.180943, 
-4.695026, -3.632681, -3.209528, 
-4.691919, -3.615025, -3.202333, 
-4.675552, -3.597176, -3.163026, 
-4.645109, -3.579124, -3.089646, 
-4.625301, -3.561228, -3.042015, 
-4.615242, -3.543470, -3.017982, 
-4.608820, -3.525763, -3.002764, 
-4.597317, -3.507984, -2.975236, 
-4.591938, -3.490294, -2.962545, 
-4.589428, -3.472645, -2.956795, 
-4.584410, -3.454958, -2.944964, 
-4.586193, -3.437372, -2.949609, 
-4.584709, -3.419739, -2.946342, 
-4.582409, -3.402090, -2.941098, 
-4.584461, -3.384506, -2.946401, 
-4.574438, -3.366749, -2.922459, 
-4.558338, -3.348902, -2.883805, 
-4.549671, -3.331163, -2.863144, 
-4.542629, -3.313446, -2.846423, 
-4.535036, -3.295721, -2.828363, 
-4.536230, -3.278124, -2.831582, 
-4.545050, -3.260637, -2.853265, 
-4.566977, -3.243340, -2.906678, 
-4.579763, -3.225908, -2.937964, 
-4.586380, -3.208389, -2.954303, 
-4.584831, -3.190752, -2.950887, 
-4.576328, -3.173016, -2.930629, 
-4.559986, -3.155161, -2.891380, 
-4.540628, -3.137266, -2.844844, 
-4.513611, -3.119261, -2.779765, 
-4.497768, -3.101416, -2.741733, 
-4.488754, -3.083670, -2.720237, 
-4.490698, -3.066082, -2.725276, 
-4.487217, -3.048414, -2.717171, 
-4.497976, -3.030952, -2.743552, 
-4.517401, -3.013618, -2.790908, 
-4.505724, -3.928909, -2.699693, 
-4.502188, -3.911249, -2.691460, 
-4.507881, -3.893721, -2.705563, 
-4.512529, -3.876177, -2.717141, 
-4.522963, -3.858719, -2.742723, 
-4.538855, -3.841339, -2.781518, 
-4.547770, -3.823856, -2.803432, 
-4.559340, -3.806408, -2.831798, 
-4.568703, -3.788927, -2.854817, 
-4.582905, -3.771521, -2.889531, 
-4.595947, -3.754099, -2.921424, 
-4.618870, -3.736814, -2.977273, 
-4.637583, -3.719469, -3.022909, 
-4.655960, -3.702118, -3.067754, 
-4.673992, -3.684769, -3.111737, 
-4.687643, -3.667353, -3.145112, 
-4.705172, -3.649996, -3.187870, 
-4.716797, -3.632551, -3.216339, 
-4.715706, -3.614923, -3.214025, 
-4.707037, -3.597187, -3.193359, 
-4.683643, -3.579237, -3.137050, 
-4.655888, -3.561224, -3.070176, 
-4.646088, -3.543470, -3.046772, 
-4.646456, -3.525862, -3.047991, 
-4.644388, -3.508219, -3.043315, 
-4.643372, -3.490593, -3.041173, 
-4.639889, -3.472931, -3.033072, 
-4.639969, -3.455317, -3.033582, 
-4.638098, -3.437677, -3.029380, 
-4.630096, -3.419949, -3.010336, 
-4.627058, -3.402290, -3.003306, 
-4.627621, -3.384686, -3.004996, 
-4.613548, -3.366869, -2.971251, 
-4.609631, -3.349197, -2.962092, 
-4.603052, -3.331488, -2.946485, 
-4.599157, -3.313818, -2.937386, 
-4.592381, -3.296104, -2.921305, 
-4.587835, -3.278425, -2.910630, 
-4.595350, -3.260920, -2.929153, 
-4.602583, -3.243410, -2.946985, 
-4.603355, -3.225807, -2.949181, 
-4.608601, -3.208265, -2.962210, 
-4.606533, -3.190620, -2.957533, 
-4.597403, -3.172874, -2.935750, 
-4.589981, -3.155151, -2.918112, 
-4.574226, -3.137308, -2.880291, 
-4.552132, -3.119373, -2.827128, 
-4.526880, -3.101393, -2.766319, 
-4.513849, -3.083588, -2.735095, 
-4.515875, -3.066002, -2.740335, 
-4.510084, -3.048302, -2.726637, 
-4.517502, -3.030792, -2.744922, 
-4.536352, -3.013449, -2.790892, 
-4.500572, -3.945999, -2.641008, 
-4.492723, -3.928278, -2.622326, 
-4.503897, -3.910830, -2.649704, 
-4.509964, -3.893305, -2.664718, 
-4.523762, -3.875896, -2.698442, 
-4.531256, -3.858395, -2.716917, 
-4.546886, -3.841009, -2.755074, 
-4.558119, -3.823561, -2.782593, 
-4.569632, -3.806110, -2.810824, 
-4.584967, -3.788717, -2.848302, 
-4.593550, -3.771229, -2.869409, 
-4.609179, -3.753843, -2.907569, 
-4.627596, -3.736500, -2.952482, 
-4.653790, -3.719265, -3.016225, 
-4.670273, -3.701889, -3.056488, 
-4.694956, -3.684629, -3.116571, 
-4.703979, -3.667145, -3.138774, 
-4.724829, -3.649836, -3.189565, 
-4.733444, -3.632347, -3.210750, 
-4.738722, -3.614811, -3.223856, 
-4.738258, -3.597193, -3.223056, 
-4.727026, -3.579418, -3.196191, 
-4.693474, -3.561321, -3.115285, 
-4.683495, -3.543566, -3.091443, 
-4.675734, -3.525839, -3.072979, 
-4.680233, -3.508295, -3.084200, 
-4.675230, -3.490608, -3.072411, 
-4.671741, -3.472944, -3.064294, 
-4.672152, -3.455336, -3.065606, 
-4.673176, -3.437738, -3.068411, 
-4.667019, -3.420036, -3.053834, 
-4.660681, -3.402332, -3.038810, 
-4.659210, -3.384699, -3.035578, 
-4.652273, -3.366983, -3.019113, 
-4.644537, -3.349258, -3.000711, 
-4.645704, -3.331659, -3.003862, 
-4.639927, -3.313963, -2.990199, 
-4.637901, -3.296318, -2.985617, 
-4.635792, -3.278673, -2.980839, 
-4.629917, -3.260975, -2.966942, 
-4.631296, -3.243380, -2.970603, 
-4.628056, -3.225718, -2.963087, 
-4.628956, -3.208117, -2.965601, 
-4.626627, -3.190468, -2.960282, 
-4.622110, -3.172787, -2.949673, 
-4.612717, -3.155035, -2.927260, 
-4.602713, -3.137276, -2.903363, 
-4.581688, -3.119356, -2.852793, 
-4.553179, -3.101330, -2.784094, 
-4.535715, -3.083460, -2.742136, 
-4.531109, -3.065779, -2.731318, 
-4.531271, -3.048164, -2.732041, 
-4.540401, -3.030680, -2.754470, 
-4.555729, -3.013283, -2.791907, 
-4.575865, -2.995956, -2.840977, 
-4.503502, -3.963207, -2.601887, 
-4.494745, -3.945471, -2.581014, 
-4.495300, -3.927870, -2.582675, 
-4.512690, -3.910511, -2.625098, 
-4.525295, -3.893084, -2.655947, 
-4.533840, -3.875597, -2.676955, 
-4.536266, -3.858023, -2.683155, 
-4.553787, -3.840666, -2.725898, 
-4.569492, -3.823282, -2.764240, 
-4.582323, -3.805851, -2.795658, 
-4.588276, -3.788321, -2.810424, 
-4.614998, -3.771093, -2.875445, 
-4.623983, -3.753614, -2.897518, 
-4.645443, -3.736311, -2.949799, 
-4.670431, -3.719063, -3.010623, 
-4.694656, -3.701801, -3.069601, 
-4.707865, -3.684380, -3.101897, 
-4.726706, -3.667034, -3.147872, 
-4.744898, -3.649679, -3.192267, 
-4.756151, -3.632229, -3.219832, 
-4.759890, -3.614674, -3.229213, 
-4.765766, -3.597145, -3.243763, 
-4.758686, -3.579432, -3.226950, 
-4.740557, -3.561558, -3.183378, 
-4.718712, -3.543629, -3.130813, 
-4.711580, -3.525913, -3.113871, 
-4.708391, -3.508255, -3.106481, 
-4.705782, -3.490604, -3.100487, 
-4.704966, -3.472980, -3.098836, 
-4.705322, -3.455372, -3.100028, 
-4.704288, -3.437744, -3.097844, 
-4.701687, -3.420094, -3.091872, 
-4.697685, -3.402422, -3.082514, 
-4.690308, -3.384701, -3.064976, 
-4.686985, -3.367039, -3.057258, 
-4.684875, -3.349396, -3.052475, 
-4.678188, -3.331686, -3.036607, 
-4.675644, -3.314035, -3.030777, 
-4.672642, -3.296377, -3.023830, 
-4.669971, -3.278725, -3.017693, 
-4.662928, -3.261007, -3.000970, 
-4.661364, -3.243370, -2.997510, 
-4.659672, -3.225731, -2.993740, 
-4.654886, -3.208048, -2.982482, 
-4.651655, -3.190384, -2.974977, 
-4.650860, -3.172758, -2.973383, 
-4.647291, -3.155090, -2.965070, 
-4.640570, -3.137379, -2.949124, 
-4.616867, -3.119419, -2.892066, 
-4.587372, -3.101379, -2.820982, 
-4.561129, -3.083384, -2.757768, 
-4.554165, -3.065668, -2.741241, 
-4.553022, -3.048035, -2.738806, 
-4.556671, -3.030472, -2.747957, 
-4.567711, -3.013012, -2.775023, 
-4.590925, -2.995731, -2.831549, 
-4.514235, -3.980526, -2.581663, 
-4.504717, -3.962780, -2.558937, 
-4.501482, -3.945124, -2.551431, 
-4.506672, -3.927589, -2.564318, 
-4.521887, -3.910200, -2.601480, 
-4.534187, -3.892767, -2.631585, 
-4.548637, -3.875364, -2.666885, 
-4.550817, -3.857788, -2.672492, 
-4.565042, -3.840384, -2.707260, 
-4.576202, -3.822935, -2.734593, 
-4.591597, -3.805540, -2.772220, 
-4.607121, -3.788147, -2.810157, 
-4.625706, -3.770805, -2.855476, 
-4.640495, -3.753408, -2.891608, 
-4.658533, -3.736057, -2.935598, 
-4.692001, -3.718927, -3.016952, 
-4.699587, -3.701427, -3.035649, 
-4.726784, -3.684210, -3.101811, 
-4.741587, -3.666811, -3.137980, 
-4.755314, -3.649395, -3.171570, 
-4.772116, -3.632021, -3.212568, 
-4.781319, -3.614536, -3.235202, 
-4.791643, -3.597075, -3.260521, 
-4.791689, -3.579462, -3.260956, 
-4.778212, -3.561655, -3.228652, 
-4.755955, -3.543724, -3.175086, 
-4.740009, -3.525881, -3.136811, 
-4.735395, -3.508202, -3.125966, 
-4.735504, -3.490589, -3.126553, 
-4.735744, -3.472980, -3.127464, 
-4.737839, -3.455399, -3.132864, 
-4.738852, -3.437798, -3.135628, 
-4.734634, -3.420124, -3.125747, 
-4.730343, -3.402451, -3.115683, 
-4.725349, -3.384764, -3.103919, 
-4.723467, -3.367123, -3.099689, 
-4.715986, -3.349401, -3.081906, 
-4.717459, -3.331810, -3.085790, 
-4.709515, -3.314077, -3.066881, 
-4.707342, -3.296434, -3.061951, 
-4.702772, -3.278751, -3.051212, 
-4.697712, -3.261065, -3.039291, 
-4.691534, -3.243361, -3.024657, 
-4.692087, -3.225756, -3.026325, 
-4.690678, -3.208120, -3.023237, 
-4.686041, -3.190437, -3.012334, 
-4.683840, -3.172791, -3.007331, 
-4.684593, -3.155186, -3.009489, 
-4.676069, -3.137447, -2.989172, 
-4.659578, -3.119593, -2.949577, 
-4.631718, -3.101576, -2.882453, 
-4.597946, -3.083469, -2.801012, 
-4.588579, -3.065720, -2.778665, 
-4.580076, -3.047981, -2.758406, 
-4.583380, -3.030413, -2.766723, 
-4.589794, -3.012888, -2.782588, 
-4.606272, -2.995510, -2.822809, 
-4.631857, -2.978260, -2.885072, 
-4.509377, -3.980013, -2.524012, 
-4.498041, -3.962238, -2.496890, 
-4.512445, -3.944838, -2.532083, 
-4.520607, -3.927347, -2.552168, 
-4.532280, -3.909904, -2.580748, 
-4.546759, -3.892506, -2.616125, 
-4.557274, -3.875046, -2.641908, 
-4.565041, -3.857548, -2.661038, 
-4.574081, -3.840069, -2.683253, 
-4.584423, -3.822609, -2.708605, 
-4.602116, -3.805248, -2.751793, 
-4.622370, -3.787924, -2.801186, 
-4.631678, -3.770445, -2.824046, 
-4.656540, -3.753195, -2.884562, 
-4.682106, -3.735952, -2.946784, 
-4.695343, -3.718533, -2.979152, 
-4.716646, -3.701229, -3.031060, 
-4.741261, -3.683973, -3.090967, 
-4.755835, -3.666573, -3.126584, 
-4.778666, -3.649292, -3.182184, 
-4.788671, -3.631823, -3.206729, 
-4.806807, -3.614470, -3.250990, 
-4.813194, -3.596945, -3.266777, 
-4.815248, -3.579359, -3.272104, 
-4.810070, -3.561672, -3.259893, 
-4.795698, -3.543854, -3.225420, 
-4.771397, -3.525888, -3.166908, 
-4.763350, -3.508160, -3.147753, 
-4.763090, -3.490543, -3.147447, 
-4.761383, -3.472906, -3.143639, 
-4.764730, -3.455341, -3.152071, 
-4.762075, -3.437691, -3.145962, 
-4.761955, -3.420076, -3.145999, 
-4.756912, -3.402390, -3.134117, 
-4.753750, -3.384731, -3.126785, 
-4.751623, -3.367086, -3.121965, 
-4.749069, -3.349434, -3.116107, 
-4.742701, -3.331728, -3.101013, 
-4.739674, -3.314070, -3.094008, 
-4.739799, -3.296457, -3.094640, 
-4.731041, -3.278717, -3.073759, 
-4.727091, -3.261045, -3.064523, 
-4.723108, -3.243374, -3.055205, 
-4.719063, -3.225700, -3.045739, 
-4.719162, -3.208088, -3.046300, 
-4.715538, -3.190420, -3.037850, 
-4.717823, -3.172836, -3.043714, 
-4.718121, -3.155226, -3.044762, 
-4.711409, -3.137512, -3.028837, 
-4.701122, -3.119749, -3.004262, 
-4.688227, -3.101946, -2.973369, 
-4.663048, -3.083967, -2.912734, 
-4.634941, -3.065947, -2.845015, 
-4.621342, -3.048132, -2.812410, 
-4.615200, -3.030428, -2.797864, 
-4.610209, -3.012739, -2.786113, 
-4.629499, -2.995399, -2.833149, 
-4.660591, -2.978231, -2.908744, 
-4.517715, -3.997295, -2.497984, 
-4.515392, -3.979654, -2.492690, 
-4.512228, -3.962000, -2.485345, 
-4.517704, -3.944469, -2.498929, 
-4.533480, -3.927090, -2.537445, 
-4.544588, -3.909639, -2.564659, 
-4.553549, -3.892159, -2.586682, 
-4.567322, -3.874748, -2.620343, 
-4.580278, -3.857325, -2.652038, 
-4.586432, -3.839802, -2.667262, 
-4.605505, -3.822468, -2.713762, 
-4.612011, -3.804945, -2.729865, 
-4.628025, -3.787560, -2.768985, 
-4.648016, -3.770239, -2.817710, 
-4.656504, -3.752750, -2.838585, 
-4.691114, -3.735640, -2.922699, 
-4.711651, -3.718325, -2.972750, 
-4.725145, -3.700907, -3.005744, 
-4.755543, -3.683735, -3.079655, 
-4.768745, -3.666313, -3.111947, 
-4.795435, -3.649088, -3.176892, 
-4.808176, -3.631660, -3.208054, 
-4.823669, -3.614273, -3.245894, 
-4.838247, -3.596870, -3.281514, 
-4.841299, -3.579296, -3.289253, 
-4.839396, -3.561651, -3.285002, 
-4.823034, -3.543802, -3.245718, 
-4.805683, -3.525940, -3.204022, 
-4.790258, -3.508104, -3.167008, 
-4.789122, -3.490477, -3.164579, 
-4.787035, -3.472832, -3.159854, 
-4.786301, -3.455208, -3.158403, 
-4.791208, -3.437666, -3.170606, 
-4.784668, -3.419958, -3.155097, 
-4.780878, -3.402290, -3.146247, 
-4.779837, -3.384663, -3.144049, 
-4.780247, -3.367054, -3.145365, 
-4.774927, -3.349361, -3.132815, 
-4.771523, -3.331701, -3.124889, 
-4.765547, -3.314001, -3.110754, 
-4.762159, -3.296337, -3.102876, 
-4.757820, -3.278660, -3.092694, 
-4.755049, -3.261003, -3.086316, 
-4.751074, -3.243334, -3.077024, 
-4.749773, -3.225698, -3.074197, 
-4.742052, -3.207973, -3.055834, 
-4.741291, -3.190348, -3.054310, 
-4.742449, -3.172749, -3.057438, 
-4.742954, -3.155140, -3.058991, 
-4.740694, -3.137493, -3.053843, 
-4.736849, -3.119822, -3.044859, 
-4.731970, -3.102135, -3.033382, 
-4.718031, -3.084316, -2.999954, 
-4.700006, -3.066441, -2.956646, 
-4.679905, -3.048534, -2.908299, 
-4.662247, -3.030663, -2.865875, 
-4.652147, -3.012901, -2.841753, 
-4.669701, -2.995537, -2.884581, 
-4.704565, -2.978422, -2.969314, 
-4.510141, -4.014353, -2.433438, 
-4.528049, -3.997002, -2.477120, 
-4.521635, -3.979301, -2.461911, 
-4.519272, -3.961658, -2.456509, 
-4.539894, -3.944345, -2.506765, 
-4.548199, -3.926857, -2.527188, 
-4.560526, -3.909424, -2.557357, 
-4.567331, -3.891912, -2.574159, 
-4.577213, -3.874445, -2.598405, 
-4.590879, -3.857033, -2.631816, 
-4.596478, -3.839504, -2.645691, 
-4.600794, -3.821957, -2.656463, 
-4.632933, -3.804802, -2.734629, 
-4.632078, -3.787174, -2.732912, 
-4.666622, -3.770061, -2.816865, 
-4.685850, -3.752729, -2.863743, 
-4.706797, -3.735420, -2.914780, 
-4.721237, -3.718018, -2.950064, 
-4.741903, -3.700706, -3.000428, 
-4.759050, -3.683340, -3.042254, 
-4.789396, -3.666168, -3.116051, 
-4.802567, -3.648746, -3.148269, 
-4.822119, -3.631418, -3.195923, 
-4.839474, -3.614056, -3.238266, 
-4.856424, -3.596687, -3.279628, 
-4.861774, -3.579155, -3.292907, 
-4.863579, -3.561565, -3.297626, 
-4.854710, -3.543818, -3.276481, 
-4.845371, -3.526068, -3.254221, 
-4.819582, -3.508083, -3.192109, 
-4.811705, -3.490356, -3.173367, 
-4.807554, -3.472685, -3.163639, 
-4.811455, -3.455128, -3.173412, 
-4.810593, -3.437504, -3.171644, 
-4.807886, -3.419849, -3.165411, 
-4.804890, -3.402193, -3.158484, 
-4.806124, -3.384598, -3.161796, 
-4.802338, -3.366928, -3.152958, 
-4.795805, -3.349220, -3.137471, 
-4.795586, -3.331604, -3.137261, 
-4.793882, -3.313965, -3.133461, 
-4.788054, -3.296267, -3.119676, 
-4.787180, -3.278641, -3.117884, 
-4.781670, -3.260946, -3.104874, 
-4.781551, -3.243328, -3.104916, 
-4.779272, -3.225681, -3.099720, 
-4.774057, -3.207991, -3.087419, 
-4.769461, -3.190310, -3.076617, 
-4.766411, -3.172651, -3.069554, 
-4.765099, -3.155016, -3.066705, 
-4.763155, -3.137373, -3.062325, 
-4.762026, -3.119740, -3.059922, 
-4.755735, -3.102034, -3.045023, 
-4.749861, -3.084333, -3.031123, 
-4.744858, -3.066645, -3.019331, 
-4.733271, -3.048861, -2.991609, 
-4.718519, -3.031033, -2.956215, 
-4.702503, -3.013184, -2.917773, 
-4.707178, -2.995634, -2.929421, 
-4.732182, -2.978378, -2.990276, 
-4.755850, -2.961102, -3.047908, 
-4.770554, -2.943697, -3.083838, 
-4.543421, -4.014389, -2.468127, 
-4.528122, -3.996557, -2.431407, 
-4.526138, -3.978920, -2.426920, 
-4.538664, -3.961493, -2.457568, 
-4.545938, -3.943989, -2.475507, 
-4.558552, -3.926561, -2.506371, 
-4.566301, -3.909063, -2.525448, 
-4.582836, -3.891691, -2.565805, 
-4.586658, -3.874136, -2.575383, 
-4.594885, -3.856647, -2.595625, 
-4.610180, -3.839256, -2.632972, 
-4.613808, -3.821699, -2.642081, 
-4.648468, -3.804583, -2.726351, 
-4.692076, -3.787596, -2.832282, 
-4.719318, -3.770378, -2.898556, 
-4.714819, -3.752703, -2.887989, 
-4.744480, -3.735521, -2.960125, 
-4.753197, -3.718037, -2.981550, 
-4.779696, -3.700806, -3.046034, 
-4.785620, -3.683281, -3.060695, 
-4.798826, -3.665859, -3.092990, 
-4.825344, -3.648632, -3.157520, 
-4.842060, -3.631260, -3.198309, 
-4.869287, -3.614042, -3.264555, 
-4.873020, -3.596483, -3.273918, 
-4.886036, -3.579060, -3.305755, 
-4.880703, -3.561373, -3.293164, 
-4.884361, -3.543812, -3.302352, 
-4.875021, -3.526060, -3.280089, 
-4.851074, -3.508099, -3.222431, 
-4.835588, -3.490259, -3.185297, 
-4.833317, -3.472610, -3.180118, 
-4.834417, -3.455015, -3.183106, 
-4.833851, -3.437393, -3.182064, 
-4.830542, -3.419731, -3.174374, 
-4.831963, -3.402140, -3.178138, 
-4.828024, -3.384468, -3.168925, 
-4.827656, -3.366850, -3.168364, 
-4.824034, -3.349184, -3.159921, 
-4.825705, -3.331594, -3.164279, 
-4.817379, -3.313860, -3.144453, 
-4.814939, -3.296209, -3.138874, 
-4.809206, -3.278513, -3.125316, 
-4.807344, -3.260872, -3.121140, 
-4.803652, -3.243204, -3.112523, 
-4.802195, -3.225569, -3.109320, 
-4.797096, -3.207878, -3.097299, 
-4.794987, -3.190235, -3.092521, 
-4.791225, -3.172564, -3.083742, 
-4.787283, -3.154892, -3.074527, 
-4.782864, -3.137213, -3.064152, 
-4.782087, -3.119585, -3.062598, 
-4.782248, -3.101973, -3.063315, 
-4.777105, -3.084282, -3.051192, 
-4.773861, -3.066620, -3.043656, 
-4.766407, -3.048895, -3.025935, 
-4.756142, -3.031130, -3.001415, 
-4.747585, -3.013390, -2.981023, 
-4.742468, -2.995699, -2.968963, 
-4.758993, -2.978319, -3.009294, 
-4.781796, -2.961033, -3.064826, 
-4.792824, -2.943575, -3.091860, 
-4.541641, -4.031527, -2.417606, 
-4.535429, -4.013828, -2.402884, 
-4.533571, -3.996193, -2.398707, 
-4.538115, -3.978647, -2.410035, 
-4.548519, -3.961189, -2.435538, 
-4.561190, -3.943764, -2.466543, 
-4.568188, -3.926254, -2.483810, 
-4.583042, -3.908859, -2.520097, 
-4.587862, -3.891319, -2.532082, 
-4.593142, -3.873787, -2.545192, 
-4.603113, -3.856319, -2.569655, 
-4.614143, -3.838869, -2.596686, 
-4.633293, -3.821535, -2.643364, 
-4.798107, -3.683016, -3.045037, 
-4.811258, -3.665596, -3.077198, 
-4.834557, -3.648319, -3.133931, 
-4.860840, -3.631088, -3.197887, 
-4.877232, -3.613712, -3.237900, 
-4.887310, -3.596245, -3.262621, 
-4.904800, -3.578888, -3.305289, 
-4.905191, -3.561281, -3.306564, 
-4.905642, -3.543674, -3.307981, 
-4.901564, -3.526003, -3.298431, 
-4.884554, -3.508142, -3.257566, 
-4.864340, -3.490236, -3.208985, 
-4.857929, -3.472525, -3.193814, 
-4.858818, -3.454924, -3.196291, 
-4.860182, -3.437330, -3.199924, 
-4.858442, -3.419691, -3.196036, 
-4.858892, -3.402082, -3.197446, 
-4.854881, -3.384413, -3.188061, 
-4.852968, -3.366772, -3.183750, 
-4.852636, -3.349154, -3.183274, 
-4.848310, -3.331476, -3.173124, 
-4.843115, -3.313787, -3.160869, 
-4.837406, -3.296091, -3.147378, 
-4.837580, -3.278479, -3.148121, 
-4.830326, -3.260759, -3.130885, 
-4.829987, -3.243141, -3.130389, 
-4.828135, -3.225500, -3.126231, 
-4.821251, -3.207785, -3.109894, 
-4.815418, -3.190084, -3.096094, 
-4.814110, -3.172451, -3.093249, 
-4.813231, -3.154823, -3.091447, 
-4.808712, -3.137142, -3.080836, 
-4.805277, -3.119476, -3.072844, 
-4.806200, -3.101873, -3.075407, 
-4.799002, -3.084156, -3.058304, 
-4.800844, -3.066566, -3.063085, 
-4.793037, -3.048836, -3.044519, 
-4.790922, -3.031189, -3.039724, 
-4.788303, -3.013535, -3.033708, 
-4.782866, -2.995840, -3.020871, 
-4.786201, -2.978270, -3.029273, 
-4.794424, -2.960772, -3.049506, 
-4.799999, -2.943235, -3.063335, 
-4.824490, -2.925972, -3.122953, 
-4.818209, -2.908262, -3.108070, 
-4.559988, -4.031347, -2.416133, 
-4.545742, -4.013533, -2.381969, 
-4.546030, -3.995928, -2.382983, 
-4.553450, -3.978426, -2.401270, 
-4.559635, -3.960905, -2.416572, 
-4.569929, -3.943445, -2.441810, 
-4.582893, -3.926022, -2.473523, 
-4.589207, -3.908504, -2.489127, 
-4.600819, -3.891062, -2.517571, 
-4.601032, -3.873455, -2.518404, 
-4.608364, -3.855953, -2.536476, 
-4.620968, -3.838524, -2.567317, 
-4.848978, -3.665695, -3.122630, 
-4.848808, -3.648081, -3.122547, 
-4.870674, -3.630785, -3.175807, 
-4.893150, -3.613499, -3.230548, 
-4.910110, -3.596130, -3.271937, 
-4.918320, -3.578636, -3.292127, 
-4.923468, -3.561098, -3.304919, 
-4.924953, -3.543510, -3.308843, 
-4.926338, -3.525915, -3.312520, 
-4.910627, -3.508076, -3.274801, 
-4.895512, -3.490246, -3.238532, 
-4.883043, -3.472452, -3.208694, 
-4.879486, -3.454782, -3.200413, 
-4.881208, -3.437189, -3.204937, 
-4.882601, -3.419594, -3.208625, 
-4.881512, -3.401966, -3.206311, 
-4.880417, -3.384336, -3.203989, 
-4.879808, -3.366714, -3.202842, 
-4.876957, -3.349060, -3.196266, 
-4.873716, -3.331398, -3.188747, 
-4.868380, -3.313707, -3.176150, 
-4.866596, -3.296066, -3.172157, 
-4.859629, -3.278353, -3.155607, 
-4.857496, -3.260708, -3.150769, 
-4.854342, -3.243048, -3.143460, 
-4.851171, -3.225388, -3.136109, 
-4.848230, -3.207731, -3.129311, 
-4.845106, -3.190071, -3.122075, 
-4.841780, -3.172407, -3.114345, 
-4.839540, -3.154758, -3.109251, 
-4.835064, -3.137077, -3.098739, 
-4.829248, -3.119379, -3.084986, 
-4.827562, -3.101738, -3.081228, 
-4.821915, -3.084042, -3.067889, 
-4.821630, -3.066420, -3.067520, 
-4.816931, -3.048737, -3.056471, 
-4.814129, -3.031080, -3.050015, 
-4.813288, -3.013451, -3.048300, 
-4.814890, -2.995857, -3.052505, 
-4.810566, -2.978178, -3.042364, 
-4.813780, -2.960608, -3.050478, 
-4.822701, -2.943121, -3.072399, 
-4.831436, -2.925629, -3.093872, 
-4.837187, -2.908092, -3.108122, 
-4.550396, -4.030764, -2.347022, 
-4.558184, -4.013266, -2.366202, 
-4.557468, -3.995647, -2.364795, 
-4.566179, -3.978165, -2.386203, 
-4.578133, -3.960728, -2.415462, 
-4.580425, -3.943151, -2.421338, 
-4.588051, -3.925652, -2.440118, 
-4.599937, -3.908213, -2.469220, 
-4.608896, -3.890734, -2.491234, 
-4.621567, -3.873306, -2.522227, 
-4.621675, -3.855700, -2.522817, 
-4.644070, -3.838411, -2.577356, 
-4.860987, -3.647814, -3.106140, 
-4.884720, -3.630545, -3.163920, 
-4.907944, -3.613266, -3.220472, 
-4.920250, -3.595833, -3.250594, 
-4.937607, -3.578472, -3.292934, 
-4.944183, -3.560955, -3.309182, 
-4.950018, -3.543427, -3.323632, 
-4.950890, -3.525826, -3.326061, 
-4.937830, -3.508024, -3.294772, 
-4.919020, -3.490141, -3.249552, 
-4.906523, -3.472349, -3.219620, 
-4.904766, -3.454708, -3.215690, 
-4.904631, -3.437092, -3.215720, 
-4.902081, -3.419436, -3.209868, 
-4.908525, -3.401913, -3.225830, 
-4.905853, -3.384260, -3.219681, 
-4.901794, -3.366589, -3.210179, 
-4.901962, -3.348978, -3.210907, 
-4.899370, -3.331326, -3.204960, 
-4.897263, -3.313681, -3.200181, 
-4.896362, -3.296053, -3.198324, 
-4.891809, -3.278374, -3.187627, 
-4.883713, -3.260643, -3.168349, 
-4.876539, -3.242924, -3.151308, 
-4.873085, -3.225258, -3.143271, 
-4.871874, -3.207626, -3.140665, 
-4.866526, -3.189936, -3.128041, 
-4.867954, -3.172338, -3.131822, 
-4.862061, -3.154640, -3.117882, 
-4.857849, -3.136965, -3.108013, 
-4.853498, -3.119284, -3.097803, 
-4.850086, -3.101620, -3.089871, 
-4.849094, -3.083990, -3.087794, 
-4.846886, -3.066341, -3.082769, 
-4.838673, -3.048607, -3.063209, 
-4.840462, -3.031015, -3.067871, 
-4.840633, -3.013403, -3.068609, 
-4.834465, -2.995695, -3.054003, 
-4.834932, -2.978086, -3.055465, 
-4.832417, -2.960432, -3.049699, 
-4.835926, -2.942865, -3.058522, 
-4.836658, -2.925261, -3.060622, 
-4.842678, -2.907728, -3.075519, 
-4.561613, -4.048090, -2.327977, 
-4.568121, -4.030573, -2.344043, 
-4.567423, -4.012955, -2.342682, 
-4.564873, -3.995310, -2.336826, 
-4.578354, -3.977896, -2.369786, 
-4.584278, -3.960373, -2.384454, 
-4.596262, -3.942936, -2.413788, 
-4.604248, -3.925442, -2.433450, 
-4.614126, -3.907974, -2.457684, 
-4.626348, -3.890541, -2.487595, 
-4.625160, -3.872915, -2.485044, 
-4.607590, -3.855051, -2.442819, 
-4.909140, -3.648064, -3.176831, 
-4.907135, -3.630423, -3.172303, 
-4.917582, -3.612961, -3.197914, 
-4.937679, -3.595640, -3.246898, 
-4.955215, -3.578281, -3.289681, 
-4.965189, -3.560812, -3.314145, 
-4.972107, -3.543301, -3.331221, 
-4.972162, -3.525688, -3.331675, 
-4.966017, -3.507990, -3.317120, 
-4.948414, -3.490120, -3.274833, 
-4.935467, -3.472321, -3.243804, 
-4.923525, -3.454536, -3.215218, 
-4.924772, -3.436939, -3.218565, 
-4.923866, -3.419315, -3.216692, 
-4.925583, -3.401720, -3.221199, 
-4.924900, -3.384092, -3.219906, 
-4.927353, -3.366512, -3.226159, 
-4.931467, -3.348957, -3.236448, 
-4.925529, -3.331257, -3.222401, 
-4.921690, -3.313587, -3.213428, 
-4.922449, -3.295986, -3.215593, 
-4.913061, -3.278236, -3.193187, 
-4.908487, -3.260557, -3.182436, 
-4.900173, -3.242821, -3.162633, 
-4.897932, -3.225174, -3.157534, 
-4.895006, -3.207518, -3.150774, 
-4.892796, -3.189871, -3.145746, 
-4.887009, -3.172171, -3.132058, 
-4.884756, -3.154522, -3.126934, 
-4.881903, -3.136868, -3.120350, 
-4.880766, -3.119234, -3.117924, 
-4.873180, -3.101511, -3.099888, 
-4.871683, -3.083870, -3.096584, 
-4.866823, -3.066183, -3.085140, 
-4.863878, -3.048527, -3.078337, 
-4.863226, -3.030899, -3.077087, 
-4.861563, -3.013260, -3.073383, 
-4.857271, -2.995581, -3.063325, 
-4.855597, -2.977942, -3.059601, 
-4.854040, -2.960300, -3.056154, 
-4.853365, -2.942675, -3.054844, 
-4.853384, -2.925056, -3.055217, 
-4.868532, -2.907660, -3.092217, 
-4.868614, -2.890041, -3.092749, 
-4.582460, -4.047945, -2.332560, 
-4.575481, -4.030237, -2.315984, 
-4.579128, -4.012678, -2.325129, 
-4.583960, -3.995140, -2.337150, 
-4.588955, -3.977602, -2.349570, 
-4.599186, -3.960142, -2.374654, 
-4.608982, -3.942675, -2.398699, 
-4.616110, -3.925169, -2.416275, 
-4.621315, -3.907633, -2.429195, 
-4.617033, -3.889963, -2.419154, 
-4.625746, -3.872478, -2.440572, 
-4.593285, -3.854401, -2.362304, 
-4.927801, -3.630278, -3.176451, 
-4.935226, -3.612772, -3.194742, 
-4.955248, -3.595449, -3.243541, 
-4.969707, -3.578045, -3.278872, 
-4.986969, -3.560684, -3.320984, 
-4.991604, -3.543139, -3.332532, 
-4.996538, -3.525597, -3.344801, 
-4.990150, -3.507893, -3.329660, 
-4.982027, -3.490162, -3.310319, 
-4.960817, -3.472244, -3.259282, 
-4.951626, -3.454496, -3.237358, 
-4.946936, -3.436817, -3.226331, 
-4.948929, -3.419233, -3.231481, 
-4.948540, -3.401613, -3.230856, 
-4.951344, -3.384037, -3.238008, 
-4.951481, -3.366421, -3.238655, 
-4.951796, -3.348808, -3.239774, 
-4.953291, -3.331215, -3.243724, 
-4.950823, -3.313564, -3.238069, 
-4.946295, -3.295887, -3.227425, 
-4.942022, -3.278210, -3.217410, 
-4.933735, -3.260475, -3.197670, 
-4.926380, -3.242756, -3.180190, 
-4.924601, -3.225115, -3.176209, 
-4.914261, -3.207352, -3.151501, 
-4.913403, -3.189722, -3.149745, 
-4.910864, -3.172071, -3.143928, 
-4.905434, -3.154377, -3.131101, 
-4.905661, -3.136765, -3.131980, 
-4.905582, -3.119148, -3.132116, 
-4.901207, -3.101469, -3.121837, 
-4.892868, -3.083733, -3.101989, 
-4.891399, -3.066095, -3.098752, 
-4.888517, -3.048437, -3.092099, 
-4.888954, -3.030828, -3.093484, 
-4.884937, -3.013153, -3.084085, 
-4.882349, -2.995501, -3.078146, 
-4.876774, -2.977802, -3.064975, 
-4.872551, -2.960123, -3.055069, 
-4.873070, -2.942513, -3.056653, 
-4.869957, -2.924852, -3.049444, 
-4.876398, -2.907328, -3.065364, 
-4.877232, -2.889723, -3.067712, 
-4.596523, -4.065311, -2.320390, 
-4.585789, -4.047548, -2.294733, 
-4.586365, -4.029947, -2.296443, 
-4.587355, -4.012354, -2.299166, 
-4.588587, -3.994761, -2.302464, 
-4.595240, -3.977249, -2.318896, 
-4.602028, -3.959740, -2.335654, 
-4.618551, -3.942368, -2.375975, 
-4.625423, -3.924858, -2.392938, 
-4.626144, -3.907259, -2.395006, 
-4.623526, -3.889612, -2.388982, 
-4.616331, -3.871899, -2.371892, 
-4.576324, -3.853712, -2.275348, 
-4.948521, -3.630131, -3.180721, 
-4.947529, -3.612505, -3.178632, 
-4.969650, -3.595213, -3.232519, 
-4.996805, -3.577993, -3.298589, 
-4.999945, -3.560425, -3.306509, 
-5.011299, -3.542976, -3.334323, 
-5.016239, -3.525438, -3.346606, 
-5.015213, -3.507809, -3.344446, 
-5.006948, -3.490076, -3.324766, 
-4.988495, -3.472198, -3.280406, 
-4.976723, -3.454414, -3.252229, 
-4.971189, -3.436722, -3.239161, 
-4.971054, -3.419107, -3.239151, 
-4.973959, -3.401535, -3.246512, 
-4.972811, -3.383905, -3.244053, 
-4.973377, -3.366299, -3.245750, 
-4.972670, -3.348669, -3.244391, 
-4.975779, -3.331095, -3.252270, 
-4.973043, -3.313442, -3.245971, 
-4.969206, -3.295773, -3.237008, 
-4.964657, -3.278093, -3.226317, 
-4.961493, -3.260433, -3.218981, 
-4.953333, -3.242701, -3.199554, 
-4.947823, -3.225006, -3.186535, 
-4.940336, -3.207283, -3.168734, 
-4.936304, -3.189608, -3.159295, 
-4.933584, -3.171955, -3.153037, 
-4.931124, -3.154305, -3.147403, 
-4.929399, -3.136663, -3.143556, 
-4.925167, -3.118988, -3.133636, 
-4.922382, -3.101330, -3.127221, 
-4.919289, -3.083672, -3.120053, 
-4.917988, -3.066036, -3.117231, 
-4.910900, -3.048317, -3.100396, 
-4.911436, -3.030708, -3.102018, 
-4.909195, -3.013060, -3.096918, 
-4.903708, -2.995365, -3.083959, 
-4.897289, -2.977654, -3.068746, 
-4.894615, -2.959999, -3.062593, 
-4.893038, -2.942358, -3.059101, 
-4.890099, -2.924700, -3.052311, 
-4.891781, -2.907106, -3.056713, 
-4.902027, -2.889635, -3.081851, 
-4.613838, -4.065117, -2.316429, 
-4.603037, -4.047352, -2.290598, 
-4.602526, -4.029736, -2.289685, 
-4.603233, -4.012138, -2.291721, 
-4.608795, -3.994610, -2.305509, 
-4.614901, -3.977089, -2.320604, 
-4.622959, -3.959597, -2.340441, 
-4.633120, -3.942135, -2.365363, 
-4.633463, -3.924528, -2.366509, 
-4.638477, -3.906992, -2.378979, 
-4.624081, -3.889175, -2.344441, 
-4.608236, -3.871338, -2.306401, 
-4.955479, -3.629786, -3.151674, 
-4.968544, -3.612364, -3.183629, 
-4.991718, -3.595087, -3.240056, 
-5.000996, -3.577608, -3.262843, 
-5.022959, -3.560312, -3.316338, 
-5.029654, -3.542799, -3.332872, 
-5.030798, -3.525202, -3.335963, 
-5.039795, -3.507719, -3.358070, 
-5.032272, -3.489998, -3.340185, 
-5.019989, -3.472208, -3.310768, 
-4.999708, -3.454302, -3.261986, 
-4.995319, -3.436626, -3.251686, 
-4.993755, -3.418991, -3.248222, 
-4.994595, -3.401390, -3.250578, 
-4.994528, -3.383776, -3.250748, 
-4.996130, -3.366184, -3.254942, 
-4.993824, -3.348537, -3.249685, 
-4.988997, -3.330851, -3.238350, 
-4.990185, -3.313248, -3.241550, 
-4.989880, -3.295628, -3.241170, 
-4.990131, -3.278015, -3.242106, 
-4.986452, -3.260347, -3.233511, 
-4.979662, -3.242636, -3.217401, 
-4.974422, -3.224945, -3.205043, 
-4.966934, -3.207224, -3.187235, 
-4.962017, -3.189535, -3.175662, 
-4.959396, -3.171885, -3.169638, 
-4.958288, -3.154251, -3.167280, 
-4.953758, -3.136572, -3.156634, 
-4.951077, -3.118917, -3.150468, 
-4.946226, -3.101231, -3.139050, 
-4.942341, -3.083561, -3.129966, 
-4.941633, -3.065931, -3.128583, 
-4.933634, -3.048203, -3.109539, 
-4.930853, -3.030546, -3.103134, 
-4.927971, -3.012886, -3.096482, 
-4.926313, -2.995245, -3.092793, 
-4.922876, -2.977579, -3.084794, 
-4.915613, -2.959856, -3.067540, 
-4.914524, -2.942225, -3.065226, 
-4.911932, -2.924572, -3.059281, 
-4.913177, -2.906971, -3.062626, 
-4.922203, -2.889482, -3.084800, 
-4.616375, -4.064711, -2.276683, 
-4.612324, -4.047041, -2.267198, 
-4.618694, -4.029526, -2.282938, 
-4.622278, -4.011969, -2.291943, 
-4.628645, -3.994452, -2.307679, 
-4.631245, -3.976879, -2.314292, 
-4.635963, -3.959339, -2.326037, 
-4.644012, -3.941847, -2.345844, 
-4.647095, -3.924282, -2.353632, 
-4.637930, -3.906540, -2.331760, 
-4.620312, -3.888676, -2.289426, 
-4.955029, -3.629337, -3.104692, 
-4.984446, -3.612148, -3.176244, 
-5.011446, -3.594925, -3.241924, 
-5.026558, -3.577534, -3.278842, 
-5.037273, -3.560076, -3.305101, 
-5.052797, -3.542686, -3.343015, 
-5.054531, -3.525101, -3.347530, 
-5.053223, -3.507469, -3.344686, 
-5.056726, -3.489906, -3.353496, 
-5.044796, -3.472122, -3.324937, 
-5.026159, -3.454241, -3.280138, 
-5.016291, -3.436483, -3.256568, 
-5.015190, -3.418856, -3.254229, 
-5.012955, -3.401209, -3.249139, 
-5.013901, -3.383610, -3.251758, 
-5.018620, -3.366064, -3.263499, 
-5.013638, -3.348377, -3.251762, 
-5.011747, -3.330738, -3.247511, 
-5.011192, -3.313116, -3.246492, 
-5.011551, -3.295504, -3.247713, 
-5.009417, -3.277853, -3.242870, 
-5.009226, -3.260233, -3.242759, 
-5.002819, -3.242527, -3.227573, 
-4.995977, -3.224813, -3.211337, 
-4.992638, -3.207150, -3.203574, 
-4.988857, -3.189480, -3.194742, 
-4.985540, -3.171816, -3.187038, 
-4.981644, -3.154144, -3.177926, 
-4.978817, -3.136488, -3.171410, 
-4.975159, -3.118820, -3.162881, 
-4.970959, -3.101145, -3.153035, 
-4.966555, -3.083464, -3.142700, 
-4.960445, -3.065760, -3.128234, 
-4.958040, -3.048109, -3.122734, 
-4.958607, -3.030500, -3.124433, 
-4.953407, -3.012810, -3.112172, 
-4.946844, -2.995098, -3.096607, 
-4.944319, -2.977444, -3.090823, 
-4.940210, -2.959768, -3.081199, 
-4.935263, -2.942081, -3.069540, 
-4.927355, -2.924349, -3.050725, 
-4.933874, -2.906826, -3.066835, 
-4.939093, -2.889284, -3.079793, 
-4.937405, -2.871641, -3.076035, 
-4.636349, -4.082159, -2.278842, 
-4.627981, -4.064432, -2.258903, 
-4.622995, -4.046751, -2.247147, 
-4.626385, -4.029190, -2.255674, 
-4.629595, -4.011629, -2.263763, 
-4.641336, -3.994190, -2.292513, 
-4.644495, -3.976625, -2.300484, 
-4.653618, -3.959148, -2.322890, 
-4.654346, -3.941551, -2.324979, 
-4.652185, -3.923910, -2.320065, 
-4.641016, -3.906139, -2.293348, 
-4.629416, -3.888363, -2.265577, 
-4.992344, -3.611820, -3.149470, 
-5.021299, -3.594625, -3.219894, 
-5.035896, -3.577223, -3.255555, 
-5.056541, -3.559908, -3.305859, 
-5.073723, -3.542545, -3.347785, 
-5.079306, -3.525015, -3.361629, 
-5.081858, -3.507437, -3.368122, 
-5.079205, -3.489786, -3.362025, 
-5.068254, -3.472015, -3.335836, 
-5.048948, -3.454124, -3.289418, 
-5.037132, -3.436342, -3.261138, 
-5.033037, -3.418671, -3.251543, 
-5.035566, -3.401093, -3.257991, 
-5.035866, -3.383482, -3.259043, 
-5.041166, -3.365946, -3.272196, 
-5.040152, -3.348316, -3.270061, 
-5.035040, -3.330631, -3.258015, 
-5.036423, -3.313036, -3.261687, 
-5.033104, -3.295374, -3.253974, 
-5.029160, -3.277702, -3.244749, 
-5.027493, -3.260057, -3.241055, 
-5.024254, -3.242390, -3.233576, 
-5.019339, -3.224705, -3.222002, 
-5.012056, -3.206985, -3.204690, 
-5.008274, -3.189316, -3.195864, 
-5.005888, -3.171665, -3.190408, 
-5.003531, -3.154016, -3.185026, 
-5.000828, -3.136362, -3.178810, 
-4.997324, -3.118696, -3.170648, 
-4.997108, -3.101078, -3.170449, 
-4.991007, -3.083374, -3.156003, 
-4.984783, -3.065668, -3.141263, 
-4.986168, -3.048071, -3.144937, 
-4.979830, -3.030363, -3.129922, 
-4.981060, -3.012764, -3.133227, 
-4.972158, -2.995018, -3.111998, 
-4.964857, -2.977297, -3.094647, 
-4.960958, -2.959625, -3.085535, 
-4.957340, -2.941956, -3.077095, 
-4.955168, -2.924307, -3.072166, 
-4.954185, -2.906675, -3.070114, 
-4.954649, -2.889065, -3.071558, 
-4.963737, -2.871578, -3.093890, 
-4.642208, -4.081800, -2.247133, 
-4.632631, -4.064053, -2.224274, 
-4.635149, -4.046482, -2.230688, 
-4.642902, -4.028986, -2.249779, 
-4.647371, -4.011440, -2.260922, 
-4.654449, -3.993935, -2.278375, 
-4.666901, -3.976505, -2.308839, 
-4.666645, -3.958891, -2.308547, 
-4.670055, -3.941332, -2.317124, 
-4.670349, -3.923725, -2.318152, 
-4.651667, -3.905848, -2.273246, 
-4.625042, -3.887854, -2.209105, 
-4.957499, -3.628481, -3.018896, 
-4.993078, -3.611385, -3.105360, 
-5.027098, -3.594263, -3.188044, 
-5.057484, -3.577089, -3.261937, 
-5.068933, -3.559645, -3.289981, 
-5.088169, -3.542309, -3.336866, 
-5.098154, -3.524841, -3.361372, 
-5.099934, -3.507254, -3.365994, 
-5.100754, -3.489651, -3.368307, 
-5.091190, -3.471903, -3.345475, 
-5.078737, -3.454111, -3.315650, 
-5.061138, -3.436243, -3.273367, 
-5.056419, -3.418562, -3.262265, 
-5.057013, -3.400957, -3.264023, 
-5.058428, -3.383364, -3.267773, 
-5.061060, -3.365788, -3.274472, 
-5.062868, -3.348202, -3.279168, 
-5.056747, -3.330500, -3.264673, 
-5.057446, -3.312895, -3.266690, 
-5.053946, -3.295229, -3.258539, 
-5.048983, -3.277544, -3.246855, 
-5.048607, -3.259924, -3.246261, 
-5.045004, -3.242254, -3.237896, 
-5.039669, -3.224558, -3.225303, 
-5.035643, -3.206881, -3.215907, 
-5.030001, -3.189184, -3.202572, 
-5.030542, -3.171579, -3.204203, 
-5.022516, -3.153847, -3.185094, 
-5.021133, -3.136209, -3.182073, 
-5.019562, -3.118574, -3.178595, 
-5.015310, -3.100895, -3.168625, 
-5.014629, -3.083269, -3.167308, 
-5.010859, -3.065599, -3.158501, 
-5.004410, -3.047890, -3.143209, 
-5.005434, -3.030289, -3.146014, 
-4.998861, -3.012577, -3.130429, 
-4.998215, -2.994951, -3.129186, 
-4.989613, -2.977211, -3.108685, 
-4.984346, -2.959518, -3.096262, 
-4.980898, -2.941851, -3.088233, 
-4.976000, -2.924164, -3.076705, 
-4.971159, -2.906477, -3.065313, 
-4.976217, -2.888931, -3.077883, 
-4.980156, -2.871372, -3.087743, 
-4.658092, -4.081583, -2.239704, 
-4.650568, -4.063868, -2.221808, 
-4.649446, -4.046244, -2.219418, 
-4.656424, -4.028734, -2.236631, 
-4.661425, -4.011198, -2.249055, 
-4.670315, -3.993719, -2.270905, 
-4.673962, -3.976162, -2.280049, 
-4.679195, -3.958630, -2.293041, 
-4.677259, -3.940990, -2.288680, 
-4.669340, -3.923267, -2.269824, 
-4.662073, -3.905552, -2.252553, 
-4.923073, -3.697985, -2.888373, 
-4.925829, -3.680414, -2.895360, 
-4.935379, -3.662941, -2.918808, 
-4.937059, -3.645353, -2.923197, 
-4.958221, -3.628048, -2.974756, 
-4.987591, -3.610861, -3.046182, 
-5.020124, -3.593719, -3.125271, 
-5.050798, -3.576550, -3.199857, 
-5.079597, -3.559353, -3.269911, 
-5.104021, -3.542093, -3.329357, 
-5.111265, -3.524586, -3.347221, 
-5.120947, -3.507113, -3.370982, 
-5.123613, -3.489538, -3.377757, 
-5.116028, -3.471817, -3.359716, 
-5.101513, -3.453995, -3.324897, 
-5.090044, -3.436214, -3.297458, 
-5.081203, -3.418474, -3.276373, 
-5.079601, -3.400837, -3.272818, 
-5.077688, -3.383200, -3.268510, 
-5.081343, -3.365637, -3.277685, 
-5.081850, -3.348030, -3.279238, 
-5.079830, -3.330389, -3.274668, 
-5.077995, -3.312748, -3.270551, 
-5.071056, -3.295033, -3.254077, 
-5.069174, -3.277390, -3.249841, 
-5.069468, -3.259779, -3.250873, 
-5.059986, -3.242029, -3.228242, 
-5.060566, -3.224422, -3.229975, 
-5.058100, -3.206770, -3.224362, 
-5.052847, -3.189074, -3.211965, 
-5.050522, -3.171421, -3.206685, 
-5.046848, -3.153753, -3.198116, 
-5.043283, -3.136087, -3.189808, 
-5.040836, -3.118435, -3.184212, 
-5.036705, -3.100761, -3.174528, 
-5.033016, -3.083092, -3.165926, 
-5.033239, -3.065479, -3.166788, 
-5.029957, -3.047815, -3.159163, 
-5.027395, -3.030161, -3.153289, 
-5.022116, -3.012470, -3.140836, 
-5.019247, -2.994812, -3.134216, 
-5.014906, -2.977133, -3.124031, 
-5.007856, -2.959414, -3.107290, 
-5.003136, -2.941729, -3.096184, 
-5.000851, -2.924078, -3.090979, 
-4.991016, -2.906319, -3.067495, 
-4.999136, -2.888819, -3.087479, 
-5.007524, -2.871321, -3.108113, 
-5.011101, -2.853756, -3.117096, 
-4.672213, -4.098951, -2.227685, 
-4.667282, -4.081270, -2.216072, 
-4.659971, -4.063559, -2.198685, 
-4.663418, -4.046000, -2.207353, 
-4.665245, -4.028418, -2.212106, 
-4.678717, -4.011003, -2.245036, 
-4.675312, -3.993345, -2.237115, 
-4.681240, -3.975822, -2.251787, 
-4.688679, -3.958321, -2.270112, 
-4.680634, -3.940594, -2.250959, 
-4.688026, -3.923092, -2.269181, 
-4.926474, -3.715202, -2.850388, 
-4.923008, -3.697540, -2.842325, 
-4.927694, -3.679996, -2.853992, 
-4.934452, -3.662483, -2.870677, 
-4.938904, -3.644936, -2.881770, 
-4.953474, -3.627535, -2.917371, 
-4.969322, -3.610153, -2.956070, 
-5.013542, -3.593180, -3.063444, 
-5.044323, -3.576012, -3.138292, 
-5.085644, -3.558994, -3.238655, 
-5.111961, -3.541761, -3.302692, 
-5.134127, -3.524469, -3.356679, 
-5.139744, -3.506941, -3.370604, 
-5.139711, -3.489326, -3.370848, 
-5.138758, -3.471699, -3.368862, 
-5.126703, -3.453913, -3.339999, 
-5.111137, -3.436075, -3.302637, 
-5.102303, -3.418335, -3.281569, 
-5.098425, -3.400665, -3.272500, 
-5.098312, -3.383051, -3.272549, 
-5.101345, -3.365480, -3.280221, 
-5.098978, -3.347832, -3.274813, 
-5.098028, -3.330206, -3.272832, 
-5.094551, -3.312542, -3.264744, 
-5.091946, -3.294889, -3.258757, 
-5.090097, -3.277248, -3.254607, 
-5.087366, -3.259594, -3.248315, 
-5.081854, -3.241901, -3.235292, 
-5.082031, -3.224289, -3.236048, 
-5.080811, -3.206657, -3.233421, 
-5.077837, -3.188999, -3.226545, 
-5.069412, -3.171257, -3.206502, 
-5.066725, -3.153597, -3.200348, 
-5.064089, -3.135944, -3.194282, 
-5.061476, -3.118290, -3.188285, 
-5.057203, -3.100613, -3.178269, 
-5.056437, -3.082985, -3.176734, 
-5.053232, -3.065325, -3.169301, 
-5.048920, -3.047644, -3.159188, 
-5.048380, -3.030022, -3.158198, 
-5.043472, -3.012335, -3.146646, 
-5.036757, -2.994619, -3.130709, 
-5.034151, -2.976965, -3.124723, 
-5.030209, -2.959291, -3.115508, 
-5.022556, -2.941563, -3.097305, 
-5.023186, -2.923956, -3.099154, 
-5.017998, -2.906263, -3.086926, 
-5.016493, -2.888626, -3.083602, 
-5.023476, -2.871109, -3.100837, 
-5.025999, -2.853527, -3.107270, 
-4.668854, -4.098457, -2.173666, 
-4.669527, -4.080860, -2.175617, 
-4.672701, -4.063297, -2.183620, 
-4.675449, -4.045729, -2.190597, 
-4.677084, -4.028143, -2.194876, 
-4.682415, -4.010611, -2.208105, 
-4.688164, -3.993086, -2.222342, 
-4.701662, -3.975672, -2.255344, 
-4.700132, -3.958038, -2.251961, 
-4.690371, -3.940290, -2.228644, 
-4.693155, -3.922722, -2.235705, 
-4.677992, -3.904894, -2.199319, 
-4.926628, -3.732370, -2.804556, 
-4.924063, -3.714722, -2.798667, 
-4.937859, -3.697309, -2.832389, 
-4.935869, -3.679670, -2.827894, 
-4.950546, -3.662271, -2.863755, 
-4.950239, -3.644653, -2.863328, 
-4.960926, -3.627197, -2.889525, 
-4.974955, -3.609789, -2.923814, 
-5.008120, -3.592655, -3.004421, 
-5.054972, -3.575720, -3.118181, 
-5.093058, -3.558657, -3.210712, 
-5.128704, -3.541559, -3.297339, 
-5.145031, -3.524183, -3.337187, 
-5.156134, -3.506731, -3.364393, 
-5.162447, -3.489210, -3.380001, 
-5.157900, -3.471533, -3.369319, 
-5.148809, -3.453789, -3.347629, 
-5.131899, -3.435930, -3.307011, 
-5.120996, -3.418159, -3.280935, 
-5.118668, -3.400515, -3.275626, 
-5.118315, -3.382895, -3.275088, 
-5.117270, -3.365265, -3.272882, 
-5.114529, -3.347614, -3.266570, 
-5.117292, -3.330038, -3.273583, 
-5.116566, -3.312414, -3.272147, 
-5.112123, -3.294735, -3.261714, 
-5.111664, -3.277117, -3.260929, 
-5.107492, -3.259439, -3.251157, 
-5.107281, -3.241823, -3.250958, 
-5.104517, -3.224169, -3.244595, 
-5.097345, -3.206451, -3.227558, 
-5.097134, -3.188833, -3.227368, 
-5.094547, -3.171181, -3.221426, 
-5.089434, -3.153490, -3.209401, 
-5.085438, -3.135813, -3.200052, 
-5.082794, -3.118153, -3.194006, 
-5.078522, -3.100475, -3.183991, 
-5.075403, -3.082815, -3.176761, 
