-1.607878 -4.694736 -0.901968 
-1.612013 -4.677189 -0.912316 
-1.608007 -4.659525 -0.902955 
-1.586119 -4.641603 -0.850289 
-1.526342 -4.623133 -0.705903 
-1.156006 -5.356754 0.250589 
-1.146307 -5.339012 0.273747 
-1.148878 -5.321445 0.267188 
-1.166058 -5.304090 0.225261 
-1.170061 -5.286545 0.215238 
-1.167381 -5.268903 0.221393 
-1.159973 -5.251191 0.238998 
-1.158119 -5.233562 0.243157 
-1.154074 -5.215899 0.252622 
-1.160004 -5.198381 0.237933 
-1.166046 -5.180865 0.222972 
-1.163528 -5.163224 0.228740 
-1.156630 -5.145521 0.245104 
-1.145878 -5.127762 0.270808 
-1.141264 -5.110090 0.281646 
-1.140575 -5.092478 0.282979 
-1.162870 -5.075193 0.228666 
-1.193125 -5.058025 0.155083 
-1.229548 -5.040947 0.066573 
-1.265791 -5.023865 -0.021503 
-1.296410 -5.006702 -0.095972 
-1.319839 -4.989435 -0.153025 
-1.328829 -4.971960 -0.175120 
-1.343069 -4.954561 -0.209940 
-1.355852 -4.937140 -0.241217 
-1.357660 -4.919561 -0.245933 
-1.368958 -4.902119 -0.273612 
-1.382710 -4.884712 -0.307242 
-1.390350 -4.867216 -0.326073 
-1.393532 -4.849657 -0.334116 
-1.405521 -4.832224 -0.363473 
-1.413555 -4.814734 -0.383256 
-1.417046 -4.797178 -0.392041 
-1.462582 -4.780230 -0.502621 
-1.548000 -4.763855 -0.709753 
-1.588615 -4.746838 -0.808428 
-1.609518 -4.729532 -0.859366 
-1.615353 -4.712009 -0.873825 
-1.619143 -4.694458 -0.883338 
-1.619572 -4.676857 -0.884711 
-1.602547 -4.659004 -0.843825 
-1.559206 -4.640772 -0.739233 
-1.173046 -5.374161 0.255570 
-1.155237 -5.356301 0.298353 
-1.153282 -5.338669 0.302759 
-1.177647 -5.321417 0.243436 
-1.190514 -5.304000 0.211955 
-1.193121 -5.286434 0.205315 
-1.187641 -5.268752 0.218247 
-1.183107 -5.251082 0.228898 
-1.178051 -5.233406 0.240805 
-1.175997 -5.215774 0.245448 
-1.179253 -5.198216 0.237226 
-1.191679 -5.180792 0.206810 
-1.186308 -5.163111 0.219485 
-1.176348 -5.145363 0.243267 
-1.170023 -5.127668 0.258247 
-1.164274 -5.109980 0.271839 
-1.163307 -5.092361 0.273840 
-1.178078 -5.074970 0.237754 
-1.216219 -5.057917 0.145078 
-1.260866 -5.040955 0.036650 
-1.294086 -5.023830 -0.044115 
-1.316908 -5.006556 -0.099698 
-1.333464 -4.989189 -0.140110 
-1.342428 -4.971714 -0.162152 
-1.354839 -4.954288 -0.192532 
-1.365082 -4.936831 -0.217656 
-1.377377 -4.919403 -0.247765 
-1.388071 -4.901951 -0.273986 
-1.394863 -4.884445 -0.290765 
-1.410503 -4.867064 -0.328963 
-1.409693 -4.849447 -0.327331 
-1.415340 -4.831924 -0.341342 
-1.425587 -4.814465 -0.366477 
-1.431767 -4.796949 -0.381778 
-1.456394 -4.779699 -0.441739 
-1.543558 -4.763350 -0.653100 
-1.603354 -4.746607 -0.798205 
-1.621307 -4.729261 -0.842001 
-1.630079 -4.711781 -0.863581 
-1.629879 -4.694172 -0.863430 
-1.622316 -4.676455 -0.845451 
-1.585192 -4.658314 -0.755903 
-1.190355 -5.391570 0.259888 
-1.177486 -5.373783 0.290714 
-1.166101 -5.356015 0.317947 
-1.180010 -5.338613 0.283946 
-1.206137 -5.321386 0.220357 
-1.217016 -5.303939 0.193685 
-1.215055 -5.286308 0.198105 
-1.212498 -5.268667 0.203964 
-1.202309 -5.250917 0.228304 
-1.198364 -5.233256 0.237525 
-1.200523 -5.215684 0.231961 
-1.204300 -5.198135 0.222494 
-1.204626 -5.180536 0.221364 
-1.202559 -5.162902 0.226042 
-1.200478 -5.145269 0.230749 
-1.198715 -5.127640 0.234682 
-1.197876 -5.110022 0.236381 
-1.194605 -5.092371 0.243970 
-1.202082 -5.074875 0.225541 
-1.240473 -5.057823 0.132261 
-1.283762 -5.040842 0.027120 
-1.317377 -5.023726 -0.054598 
-1.342302 -5.006479 -0.115280 
-1.351875 -4.989014 -0.138786 
-1.364979 -4.971596 -0.170847 
-1.372097 -4.954094 -0.188413 
-1.382174 -4.936636 -0.213134 
-1.394190 -4.919203 -0.242564 
-1.398609 -4.901663 -0.253592 
-1.403545 -4.884129 -0.265883 
-1.417624 -4.866726 -0.300300 
-1.421860 -4.849182 -0.310887 
-1.427036 -4.831650 -0.323754 
-1.436911 -4.814186 -0.347988 
-1.450642 -4.796780 -0.381572 
-1.467354 -4.779413 -0.422365 
-1.524227 -4.762627 -0.560397 
-1.600624 -4.746126 -0.745697 
-1.630051 -4.728943 -0.817271 
-1.637020 -4.711439 -0.834480 
-1.640390 -4.693880 -0.842970 
-1.620602 -4.675987 -0.795398 
-1.561499 -4.657528 -0.652641 
-1.221205 -5.409176 0.231427 
-1.178795 -5.390962 0.333773 
-1.173239 -5.373278 0.346896 
-1.177979 -5.355743 0.335092 
-1.206995 -5.338559 0.264513 
-1.231247 -5.321306 0.205468 
-1.231339 -5.303703 0.204910 
-1.230150 -5.286082 0.207463 
-1.227259 -5.268438 0.214127 
-1.219471 -5.250722 0.232657 
-1.221060 -5.233141 0.228478 
-1.222124 -5.215553 0.225569 
-1.219332 -5.197909 0.231998 
-1.222065 -5.180346 0.225050 
-1.221592 -5.162734 0.225869 
-1.220758 -5.145119 0.227543 
-1.223236 -5.127550 0.221213 
-1.224234 -5.109961 0.218470 
-1.227489 -5.092403 0.210253 
-1.233770 -5.074888 0.194721 
-1.274153 -5.057867 0.096621 
-1.315739 -5.040863 -0.004399 
-1.342224 -5.023640 -0.068854 
-1.359348 -5.006283 -0.110642 
-1.373314 -4.988880 -0.144780 
-1.379902 -4.971369 -0.161072 
-1.384260 -4.953827 -0.171957 
-1.396059 -4.936394 -0.200850 
-1.411758 -4.919014 -0.239201 
-1.413511 -4.901436 -0.243769 
-1.421955 -4.883951 -0.264548 
-1.428432 -4.866440 -0.280564 
-1.432638 -4.848894 -0.291074 
-1.441036 -4.831409 -0.311751 
-1.449724 -4.813929 -0.333116 
-1.453489 -4.796379 -0.342565 
-1.460232 -4.778870 -0.359220 
-1.496807 -4.761791 -0.448105 
-1.570356 -4.745245 -0.626503 
-1.618900 -4.728342 -0.744376 
-1.633427 -4.710943 -0.779873 
-1.638504 -4.693411 -0.792503 
-1.606371 -4.675341 -0.715036 
-1.197392 -5.408389 0.334976 
-1.175243 -5.390467 0.388276 
-1.177458 -5.372895 0.382586 
-1.203362 -5.355668 0.319533 
-1.235668 -5.338531 0.240986 
-1.255802 -5.321217 0.191914 
-1.254030 -5.303590 0.195872 
-1.243034 -5.285826 0.222165 
-1.238220 -5.268152 0.233487 
-1.241514 -5.250597 0.225186 
-1.239403 -5.232964 0.229963 
-1.236460 -5.215317 0.236755 
-1.233381 -5.197670 0.243883 
-1.237297 -5.180121 0.234070 
-1.239779 -5.162553 0.227734 
-1.238750 -5.144934 0.229891 
-1.236088 -5.127291 0.236001 
-1.241720 -5.109770 0.222037 
-1.252741 -5.092323 0.195026 
-1.269880 -5.074966 0.153186 
-1.302032 -5.057829 0.075018 
-1.332350 -5.040661 0.001282 
-1.356794 -5.023409 -0.058225 
-1.371830 -5.006020 -0.094960 
-1.382629 -4.988571 -0.121444 
-1.392719 -4.971113 -0.146201 
-1.405235 -4.953690 -0.176836 
-1.416992 -4.936253 -0.205639 
-1.420944 -4.918705 -0.215539 
-1.432114 -4.901260 -0.242914 
-1.436569 -4.883718 -0.254030 
-1.438955 -4.866148 -0.260139 
-1.446449 -4.848650 -0.278611 
-1.453062 -4.831141 -0.294959 
-1.460016 -4.813637 -0.312126 
-1.462528 -4.796066 -0.318546 
-1.469896 -4.778566 -0.336719 
-1.477571 -4.761072 -0.355631 
-1.545509 -4.744446 -0.520447 
-1.575212 -4.727266 -0.592700 
-1.612089 -4.710196 -0.682305 
-1.621725 -4.692728 -0.705979 
-1.270790 -5.426608 0.203504 
-1.190525 -5.407846 0.397508 
-1.169134 -5.389935 0.448965 
-1.188881 -5.372618 0.400826 
-1.223814 -5.355518 0.315920 
-1.261972 -5.338468 0.223198 
-1.272259 -5.321012 0.197965 
-1.267387 -5.303338 0.209438 
-1.265152 -5.285704 0.214520 
-1.259615 -5.268020 0.227588 
-1.260788 -5.250432 0.224415 
-1.256514 -5.232768 0.234439 
-1.256863 -5.215169 0.233261 
-1.251415 -5.197487 0.246119 
-1.248938 -5.179847 0.251786 
-1.254471 -5.162323 0.238060 
-1.253078 -5.144699 0.241102 
-1.253151 -5.127096 0.240590 
-1.262577 -5.109627 0.217442 
-1.275871 -5.092216 0.184919 
-1.302582 -5.074997 0.119922 
-1.342653 -5.057970 0.022576 
-1.357798 -5.040585 -0.014426 
-1.374784 -5.023226 -0.055881 
-1.388197 -5.005814 -0.088689 
-1.393438 -4.988285 -0.101713 
-1.405397 -4.970852 -0.130995 
-1.424128 -4.953518 -0.176675 
-1.428957 -4.935984 -0.188697 
-1.432825 -4.918434 -0.198397 
-1.441528 -4.900955 -0.219799 
-1.447729 -4.883438 -0.235148 
-1.458321 -4.865986 -0.261125 
-1.457823 -4.848372 -0.260249 
-1.464718 -4.830868 -0.277279 
-1.467907 -4.813307 -0.285333 
-1.477192 -4.795834 -0.308145 
-1.474861 -4.778194 -0.302832 
-1.499634 -4.760946 -0.363146 
-1.518806 -4.743616 -0.409898 
-1.547766 -4.726429 -0.480344 
-1.569344 -4.709135 -0.532917 
-1.238266 -5.425695 0.328149 
-1.190384 -5.407401 0.443746 
-1.195698 -5.389876 0.430546 
-1.211901 -5.372506 0.390993 
-1.251667 -5.355478 0.294380 
-1.285055 -5.338356 0.213221 
-1.288109 -5.320798 0.205498 
-1.284378 -5.303141 0.214199 
-1.283419 -5.285523 0.216191 
-1.283289 -5.267920 0.216173 
-1.282248 -5.250300 0.218360 
-1.275602 -5.232600 0.234119 
-1.278378 -5.215037 0.227069 
-1.272346 -5.197346 0.241343 
-1.268280 -5.179683 0.250856 
-1.266624 -5.162056 0.254531 
-1.269981 -5.144501 0.246077 
-1.276361 -5.126987 0.230296 
-1.293165 -5.109627 0.189283 
-1.308804 -5.092249 0.151093 
-1.332623 -5.074987 0.093089 
-1.359304 -5.057768 0.028164 
-1.377050 -5.040421 -0.015139 
-1.402374 -5.023182 -0.076778 
-1.406654 -5.005638 -0.087475 
-1.415314 -4.988159 -0.108774 
-1.427216 -4.970726 -0.137917 
-1.435944 -4.953247 -0.159386 
-1.448856 -4.935827 -0.190976 
-1.451761 -4.918264 -0.198341 
-1.452234 -4.900667 -0.199817 
-1.460060 -4.883175 -0.219098 
-1.462717 -4.865606 -0.225863 
-1.470396 -4.848112 -0.244791 
-1.476614 -4.830597 -0.260178 
-1.476818 -4.812994 -0.261004 
-1.482349 -4.795467 -0.274729 
-1.494278 -4.778034 -0.303941 
-1.494324 -4.760427 -0.304390 
-1.522390 -4.743227 -0.372671 
-1.530210 -4.708128 -0.392270 
-1.207603 -5.424811 0.448279 
-1.194204 -5.407014 0.480392 
-1.207994 -5.389609 0.446674 
-1.236925 -5.372425 0.376306 
-1.277206 -5.355403 0.278449 
-1.298717 -5.338111 0.226039 
-1.305031 -5.320600 0.210423 
-1.303873 -5.302979 0.212898 
-1.299959 -5.285319 0.222046 
-1.301252 -5.267735 0.218582 
-1.302326 -5.250147 0.215652 
-1.296049 -5.232453 0.230521 
-1.295748 -5.214845 0.230921 
-1.294834 -5.197228 0.232803 
-1.290415 -5.179560 0.243169 
-1.289597 -5.161944 0.244816 
-1.292843 -5.144386 0.236626 
-1.300474 -5.126892 0.217817 
-1.307308 -5.109388 0.200946 
-1.335699 -5.092194 0.131872 
-1.362059 -5.074968 0.067720 
-1.375439 -5.057558 0.034997 
-1.399355 -5.040300 -0.023239 
-1.410238 -5.022852 -0.049915 
-1.418554 -5.005367 -0.070380 
-1.432198 -4.987959 -0.103744 
-1.441511 -4.970490 -0.126628 
-1.456205 -4.953096 -0.162539 
-1.459927 -4.935545 -0.171876 
-1.467575 -4.918049 -0.190724 
-1.465988 -4.900421 -0.187219 
-1.476473 -4.882969 -0.212932 
-1.480640 -4.865423 -0.223355 
-1.480038 -4.847811 -0.222233 
-1.488605 -4.830326 -0.243310 
-1.491421 -4.812763 -0.250458 
-1.495367 -4.795214 -0.260344 
-1.494095 -4.777588 -0.257598 
-1.496738 -4.760021 -0.264334 
-1.255304 -5.442659 0.379024 
-1.207336 -5.424363 0.494824 
-1.206139 -5.406744 0.497395 
-1.226847 -5.389439 0.446929 
-1.261230 -5.372333 0.363352 
-1.297363 -5.355251 0.275548 
-1.311779 -5.337856 0.240313 
-1.314669 -5.320295 0.232988 
-1.321268 -5.302788 0.216676 
-1.317598 -5.285131 0.225234 
-1.316708 -5.267515 0.227062 
-1.315289 -5.249890 0.230165 
-1.311663 -5.232235 0.238616 
-1.310909 -5.214621 0.240108 
-1.315447 -5.197083 0.228793 
-1.313412 -5.179448 0.233388 
-1.312342 -5.161830 0.235647 
-1.312227 -5.144224 0.235597 
-1.315647 -5.126671 0.226980 
-1.327173 -5.109232 0.198742 
-1.354866 -5.092026 0.131368 
-1.379372 -5.074778 0.071706 
-1.394787 -5.057396 0.034054 
-1.413994 -5.040068 -0.012777 
-1.423948 -5.022608 -0.037208 
-1.434801 -5.005159 -0.063817 
-1.445482 -4.987709 -0.090009 
-1.454138 -4.970228 -0.111294 
-1.464912 -4.952778 -0.137711 
-1.473732 -4.935303 -0.159397 
-1.482140 -4.917818 -0.180089 
-1.484989 -4.900253 -0.187320 
-1.487289 -4.882683 -0.193221 
-1.491770 -4.865141 -0.204399 
-1.495811 -4.847593 -0.214520 
-1.501703 -4.830072 -0.229115 
-1.505171 -4.812517 -0.237839 
-1.510746 -4.794992 -0.251677 
-1.507769 -4.777344 -0.244802 
-1.541765 -4.760229 -0.327447 
-1.524220 -4.689550 -0.286293 
-1.233782 -5.441904 0.477024 
-1.220215 -5.424107 0.509541 
-1.227856 -5.406614 0.490712 
-1.259323 -5.389466 0.414201 
-1.290323 -5.372310 0.338816 
-1.312973 -5.355033 0.283652 
-1.325686 -5.337613 0.252540 
-1.329849 -5.320070 0.242136 
-1.334511 -5.302535 0.230515 
-1.337078 -5.284969 0.223969 
-1.333685 -5.267317 0.231854 
-1.333492 -5.249711 0.231990 
-1.332758 -5.232097 0.233439 
-1.333412 -5.214503 0.231525 
-1.333672 -5.196903 0.230565 
-1.331186 -5.179263 0.236259 
-1.334780 -5.161711 0.227224 
-1.331841 -5.144066 0.234011 
-1.331133 -5.126450 0.235395 
-1.344954 -5.109045 0.201599 
-1.382427 -5.091982 0.110548 
-1.405388 -5.074709 0.054614 
-1.415798 -5.057255 0.029085 
-1.423433 -5.039762 0.010264 
-1.433714 -5.022306 -0.014957 
-1.450649 -5.004946 -0.056285 
-1.457201 -4.987436 -0.072480 
-1.468422 -4.969992 -0.099977 
-1.476196 -4.952499 -0.119131 
-1.482477 -4.934986 -0.134673 
-1.487011 -4.917444 -0.145979 
-1.492983 -4.899925 -0.160770 
-1.497053 -4.882380 -0.170954 
-1.509670 -4.864958 -0.201840 
-1.511215 -4.847374 -0.205913 
-1.516764 -4.829849 -0.219674 
-1.518755 -4.812273 -0.224833 
-1.523886 -4.794741 -0.237583 
-1.527287 -4.777182 -0.246147 
-1.531910 -4.759644 -0.257682 
-1.358335 -5.460867 0.221719 
-1.245317 -5.441628 0.494994 
-1.240854 -5.423960 0.505468 
-1.260721 -5.406645 0.457041 
-1.289547 -5.389458 0.386923 
-1.305962 -5.372093 0.346848 
-1.322760 -5.354732 0.305851 
-1.340044 -5.337378 0.263679 
-1.357290 -5.320024 0.221593 
-1.361712 -5.302485 0.210559 
-1.357376 -5.284819 0.220722 
-1.355530 -5.267188 0.224866 
-1.358570 -5.249629 0.217172 
-1.360497 -5.232055 0.212183 
-1.363457 -5.214494 0.204683 
-1.360025 -5.196840 0.212661 
-1.358923 -5.179221 0.215000 
-1.357576 -5.161597 0.217930 
-1.354870 -5.143953 0.224153 
-1.353064 -5.126324 0.228194 
-1.366512 -5.108915 0.195302 
-1.405233 -5.091869 0.101227 
-1.423985 -5.074535 0.055496 
-1.432144 -5.057047 0.035414 
-1.437033 -5.039515 0.023246 
-1.447258 -5.022058 -0.001848 
-1.465939 -5.004723 -0.047404 
-1.474155 -4.987236 -0.067629 
-1.483370 -4.969765 -0.090271 
-1.492096 -4.952286 -0.111726 
-1.494493 -4.934715 -0.117867 
-1.497236 -4.917150 -0.124832 
-1.502277 -4.899618 -0.137373 
-1.506592 -4.882074 -0.148149 
-1.514423 -4.864582 -0.167448 
-1.527994 -4.847174 -0.200633 
-1.530678 -4.829607 -0.207462 
-1.530779 -4.812002 -0.208044 
-1.532595 -4.794424 -0.212764 
-1.539385 -4.776915 -0.229538 
-1.545099 -4.759392 -0.243711 
-1.328562 -5.459993 0.339701 
-1.268991 -5.441525 0.483572 
-1.271706 -5.423963 0.476671 
-1.283453 -5.406529 0.447906 
-1.308802 -5.389294 0.386204 
-1.323635 -5.371903 0.349959 
-1.347462 -5.354646 0.291942 
-1.366362 -5.337315 0.245857 
-1.382191 -5.319940 0.207208 
-1.379381 -5.302297 0.213677 
-1.372967 -5.284600 0.228871 
-1.373550 -5.267005 0.227139 
-1.381199 -5.249513 0.208288 
-1.382565 -5.231929 0.204655 
-1.384846 -5.214359 0.198796 
-1.381191 -5.196702 0.207315 
-1.379606 -5.179075 0.210823 
-1.371746 -5.161359 0.229518 
-1.377190 -5.143835 0.216013 
-1.377827 -5.126240 0.214139 
-1.388418 -5.108788 0.188164 
-1.419495 -5.091631 0.112598 
-1.430666 -5.074190 0.085218 
-1.444750 -5.056787 0.050791 
-1.456758 -5.039356 0.021385 
-1.470749 -5.021954 -0.012821 
-1.482189 -5.004517 -0.040849 
-1.486338 -4.986971 -0.051224 
-1.495815 -4.969501 -0.074501 
-1.502682 -4.951996 -0.091455 
-1.503538 -4.934402 -0.093862 
-1.506369 -4.916842 -0.101042 
-1.510727 -4.899298 -0.111930 
-1.520758 -4.881838 -0.136548 
-1.529673 -4.864361 -0.158460 
-1.538834 -4.846888 -0.180971 
-1.542816 -4.829340 -0.190950 
-1.540297 -4.811697 -0.185183 
-1.547464 -4.794195 -0.202868 
-1.560116 -4.776772 -0.233835 
-1.589489 -4.759590 -0.305281 
-1.470987 -5.479214 0.041130 
-1.329643 -5.459566 0.382978 
-1.290998 -5.441400 0.476190 
-1.296412 -5.423875 0.462753 
-1.312128 -5.406500 0.424373 
-1.325592 -5.389091 0.391450 
-1.348942 -5.371827 0.334584 
-1.384890 -5.354743 0.247232 
-1.400032 -5.337358 0.210238 
-1.403324 -5.319803 0.201934 
-1.399578 -5.302144 0.210673 
-1.396259 -5.284494 0.218387 
-1.396311 -5.266891 0.217927 
-1.400141 -5.249343 0.208325 
-1.399033 -5.231724 0.210676 
-1.403301 -5.214182 0.200011 
-1.406435 -5.196624 0.192092 
-1.395315 -5.178860 0.218689 
-1.390663 -5.161189 0.229621 
-1.393772 -5.143631 0.221761 
-1.395578 -5.126053 0.217059 
-1.405451 -5.108591 0.192825 
-1.431269 -5.091360 0.129993 
-1.450342 -5.074030 0.083483 
-1.464825 -5.056637 0.048085 
-1.472660 -5.039143 0.028788 
-1.485909 -5.021730 -0.003619 
-1.492208 -5.004217 -0.019199 
-1.501087 -4.986740 -0.041030 
-1.508923 -4.969250 -0.060331 
-1.516998 -4.951761 -0.080220 
-1.518957 -4.934185 -0.085296 
-1.522179 -4.916626 -0.093423 
-1.530210 -4.899136 -0.113201 
-1.538338 -4.881647 -0.133209 
-1.541380 -4.864086 -0.140903 
-1.544909 -4.846533 -0.149784 
-1.552286 -4.829033 -0.167975 
-1.553755 -4.811449 -0.171859 
-1.556629 -4.793884 -0.179154 
-1.567818 -4.776442 -0.206577 
-1.585676 -4.759092 -0.250146 
-1.451265 -5.496088 0.135105 
-1.364071 -5.477227 0.345878 
-1.316305 -5.458929 0.461170 
-1.307552 -5.441195 0.482008 
-1.320122 -5.423775 0.451245 
-1.329742 -5.406311 0.427629 
-1.345612 -5.388938 0.388881 
-1.368311 -5.371662 0.333586 
-1.404053 -5.354576 0.246736 
-1.417011 -5.337160 0.215029 
-1.422335 -5.319634 0.201803 
-1.427107 -5.302100 0.189924 
-1.423351 -5.284442 0.198692 
-1.420372 -5.266795 0.205575 
-1.415274 -5.249119 0.217582 
-1.420097 -5.231585 0.205573 
-1.425989 -5.214067 0.190987 
-1.419340 -5.196367 0.206754 
-1.411818 -5.178656 0.224632 
-1.411219 -5.161043 0.225751 
-1.408688 -5.143402 0.231547 
-1.413877 -5.125874 0.218656 
-1.416464 -5.108307 0.212059 
-1.440268 -5.091045 0.154100 
-1.468119 -5.073843 0.086339 
-1.482656 -5.056450 0.050810 
-1.489353 -5.038942 0.034267 
-1.500635 -5.021500 0.006621 
-1.507719 -5.003998 -0.010858 
-1.511089 -4.986441 -0.019348 
-1.519218 -4.968954 -0.039363 
-1.528933 -4.951490 -0.063209 
-1.535246 -4.933975 -0.078826 
-1.541565 -4.916462 -0.094452 
-1.544394 -4.898899 -0.101637 
-1.549465 -4.881367 -0.114256 
-1.550556 -4.863775 -0.117225 
-1.556881 -4.846262 -0.132870 
-1.558084 -4.828672 -0.136109 
-1.565828 -4.811182 -0.155189 
-1.570116 -4.793638 -0.165907 
-1.582527 -4.776209 -0.196286 
-1.622948 -4.759188 -0.294479 
-1.349579 -5.494179 0.427189 
-1.327105 -5.476252 0.481273 
-1.323332 -5.458589 0.490051 
-1.328638 -5.441056 0.476861 
-1.334696 -5.423541 0.461858 
-1.348469 -5.406137 0.428188 
-1.359468 -5.388694 0.401227 
-1.380667 -5.371398 0.349574 
-1.421198 -5.354380 0.251121 
-1.437656 -5.337014 0.210942 
-1.441177 -5.319463 0.202083 
-1.444954 -5.301913 0.192617 
-1.444555 -5.284306 0.193254 
-1.439297 -5.266625 0.205655 
-1.433336 -5.248936 0.219752 
-1.437452 -5.231392 0.209458 
-1.436255 -5.213772 0.212034 
-1.431541 -5.196100 0.223110 
-1.427197 -5.178434 0.233300 
-1.426329 -5.160816 0.235068 
-1.426157 -5.143211 0.235149 
-1.428675 -5.125645 0.228723 
-1.431591 -5.108082 0.221341 
-1.452595 -5.090780 0.170159 
-1.474230 -5.073488 0.117446 
-1.497570 -5.056223 0.060604 
-1.505745 -5.038734 0.040483 
-1.519131 -5.021324 0.007746 
-1.525646 -5.003813 -0.008357 
-1.530029 -4.986273 -0.019304 
-1.534924 -4.968739 -0.031482 
-1.535950 -4.951147 -0.034296 
-1.546295 -4.933693 -0.059681 
-1.552568 -4.916178 -0.075198 
-1.550106 -4.898539 -0.069567 
-1.550753 -4.880941 -0.071466 
-1.560385 -4.863476 -0.095120 
-1.561720 -4.845888 -0.098683 
-1.571136 -4.828421 -0.121811 
-1.576445 -4.810892 -0.134999 
-1.583801 -4.793392 -0.153140 
-1.601671 -4.776045 -0.196732 
-1.636976 -4.758947 -0.282540 
-1.374557 -5.511698 0.412948 
-1.338284 -5.493571 0.500437 
-1.336935 -5.475949 0.503378 
-1.341642 -5.458410 0.491622 
-1.348473 -5.440902 0.474731 
-1.353806 -5.423374 0.461490 
-1.358585 -5.405841 0.449585 
-1.370302 -5.388407 0.420898 
-1.401274 -5.371251 0.345578 
-1.437000 -5.354165 0.258760 
-1.453108 -5.336794 0.219431 
-1.460308 -5.319295 0.201667 
-1.464918 -5.301759 0.190180 
-1.467615 -5.284194 0.183318 
-1.465776 -5.266565 0.187442 
-1.454105 -5.248794 0.215365 
-1.446392 -5.231078 0.233712 
-1.447945 -5.213497 0.229624 
-1.445917 -5.195864 0.234204 
-1.438473 -5.178153 0.251898 
-1.438396 -5.160549 0.251752 
-1.443415 -5.143017 0.239274 
-1.445200 -5.125441 0.234625 
-1.450029 -5.107904 0.222596 
-1.463526 -5.090496 0.189594 
-1.476854 -5.073084 0.156989 
-1.492611 -5.055708 0.118508 
-1.515615 -5.038437 0.062484 
-1.534941 -5.021111 0.015362 
-1.544670 -5.003647 -0.008520 
-1.548077 -4.986090 -0.017098 
-1.552067 -4.968544 -0.027095 
-1.549313 -4.950899 -0.020751 
-1.550760 -4.933315 -0.024590 
-1.556931 -4.915800 -0.039855 
-1.563269 -4.898287 -0.055536 
-1.566204 -4.880722 -0.062972 
-1.568432 -4.863152 -0.068697 
-1.575722 -4.845650 -0.086686 
-1.580711 -4.828117 -0.099098 
-1.584179 -4.810560 -0.107822 
-1.588552 -4.793018 -0.118741 
-1.607315 -4.775682 -0.164495 
-1.662403 -4.758873 -0.298207 
-1.421787 -5.529537 0.344824 
-1.360907 -5.511056 0.491885 
-1.354275 -5.493359 0.507619 
-1.359550 -5.475832 0.494519 
-1.363451 -5.458281 0.484722 
-1.365105 -5.440697 0.480359 
-1.367268 -5.423126 0.474795 
-1.377205 -5.405667 0.450408 
-1.390638 -5.388257 0.417557 
-1.425327 -5.371156 0.333239 
-1.457428 -5.354015 0.255193 
-1.473919 -5.336651 0.214940 
-1.483963 -5.319194 0.190290 
-1.485786 -5.301617 0.185555 
-1.487196 -5.284035 0.181807 
-1.484461 -5.266391 0.188099 
-1.478510 -5.248702 0.202181 
-1.469955 -5.230976 0.222562 
-1.465401 -5.213306 0.233258 
-1.461903 -5.195652 0.241396 
-1.454956 -5.177948 0.257884 
-1.452065 -5.160303 0.264560 
-1.452951 -5.142712 0.262080 
-1.459951 -5.125210 0.244807 
-1.465391 -5.107683 0.231304 
-1.476795 -5.090244 0.203358 
-1.480877 -5.072699 0.193148 
-1.496229 -5.055317 0.155642 
-1.522104 -5.038086 0.092668 
-1.537766 -5.020708 0.054428 
-1.549837 -5.003277 0.024872 
-1.560896 -4.985832 -0.002236 
-1.564442 -4.968279 -0.011150 
-1.561853 -4.950636 -0.005214 
-1.568455 -4.933128 -0.021535 
-1.567766 -4.915512 -0.020199 
-1.577986 -4.898054 -0.045267 
-1.581795 -4.880505 -0.054822 
-1.580599 -4.862883 -0.052257 
-1.582960 -4.845310 -0.058306 
-1.586412 -4.827755 -0.066996 
-1.590807 -4.810215 -0.077961 
-1.600500 -4.792747 -0.101772 
-1.623692 -4.775478 -0.158249 
-1.700218 -4.758976 -0.343858 
-1.479280 -5.547525 0.251848 
-1.380253 -5.528494 0.491276 
-1.364475 -5.510664 0.529148 
-1.372042 -5.493171 0.510499 
-1.378111 -5.475657 0.495479 
-1.382999 -5.458120 0.483287 
-1.384787 -5.440537 0.478605 
-1.387627 -5.422976 0.471402 
-1.401127 -5.405569 0.438391 
-1.426163 -5.388328 0.377446 
-1.461721 -5.371237 0.291023 
-1.478289 -5.353874 0.250584 
-1.493353 -5.336489 0.213788 
-1.501732 -5.319007 0.193169 
-1.507322 -5.301484 0.179310 
-1.503046 -5.283819 0.189333 
-1.502874 -5.266214 0.189416 
-1.502771 -5.248609 0.189340 
-1.499744 -5.230963 0.196335 
-1.491810 -5.213244 0.215219 
-1.481466 -5.195491 0.239927 
-1.478874 -5.177851 0.245876 
-1.473152 -5.160164 0.259404 
-1.469303 -5.142504 0.268387 
-1.473665 -5.124964 0.257500 
-1.480234 -5.107456 0.241263 
-1.482609 -5.089886 0.235183 
-1.486032 -5.072330 0.226567 
-1.504400 -5.054991 0.181768 
-1.529200 -5.037746 0.121400 
-1.546589 -5.020391 0.078963 
-1.555370 -5.002914 0.057373 
-1.563299 -4.985424 0.037848 
-1.569660 -4.967913 0.022110 
-1.569872 -4.950312 0.021269 
-1.581629 -4.932877 -0.007529 
-1.582083 -4.915276 -0.008959 
-1.590990 -4.897799 -0.030853 
-1.598112 -4.880297 -0.048425 
-1.594412 -4.862638 -0.039796 
-1.595322 -4.845047 -0.042330 
-1.593889 -4.827421 -0.039202 
-1.602165 -4.809935 -0.059564 
-1.614925 -4.792515 -0.090791 
-1.646297 -4.775360 -0.167074 
-1.734219 -4.759026 -0.380270 
-1.406942 -5.546038 0.472882 
-1.378525 -5.528026 0.541347 
-1.379200 -5.510432 0.539394 
-1.382933 -5.492886 0.530025 
-1.389229 -5.475373 0.514456 
-1.393650 -5.457829 0.503408 
-1.397249 -5.440274 0.494326 
-1.410755 -5.422867 0.461301 
-1.441282 -5.405705 0.387062 
-1.460461 -5.388380 0.340304 
-1.479511 -5.371051 0.293853 
-1.498013 -5.353714 0.248731 
-1.515482 -5.336365 0.206107 
-1.519550 -5.318820 0.195923 
-1.527983 -5.301339 0.175188 
-1.526648 -5.283717 0.178089 
-1.526848 -5.266117 0.177271 
-1.531652 -5.248583 0.165312 
-1.529541 -5.230949 0.170091 
-1.524433 -5.213273 0.182132 
-1.512678 -5.195499 0.210257 
-1.499931 -5.177711 0.240794 
-1.492601 -5.160002 0.258212 
-1.486263 -5.142307 0.273225 
-1.490000 -5.124756 0.263846 
-1.494349 -5.107214 0.252993 
-1.493010 -5.089592 0.255902 
-1.498440 -5.072065 0.242429 
-1.514771 -5.054699 0.202558 
-1.537556 -5.037422 0.147063 
-1.551159 -5.020016 0.113796 
-1.564014 -5.002598 0.082343 
-1.571259 -4.985096 0.064475 
-1.582165 -4.967649 0.037735 
-1.584007 -4.950071 0.032950 
-1.596235 -4.932644 0.003008 
-1.599272 -4.915083 -0.004679 
-1.609259 -4.897621 -0.029184 
-1.614723 -4.880096 -0.042746 
-1.611807 -4.862448 -0.036014 
-1.615530 -4.844896 -0.045361 
-1.621012 -4.827368 -0.058964 
-1.626656 -4.809847 -0.072957 
-1.637438 -4.792397 -0.099395 
-1.689106 -4.775537 -0.224815 
-1.484518 -5.564316 0.331284 
-1.401346 -5.545514 0.532328 
-1.391508 -5.527770 0.555821 
-1.396439 -5.510239 0.543554 
-1.405434 -5.492765 0.521446 
-1.406876 -5.475184 0.517631 
-1.414139 -5.457686 0.499715 
-1.420542 -5.440171 0.483850 
-1.439959 -5.422845 0.436493 
-1.461756 -5.405557 0.383388 
-1.485033 -5.388290 0.326706 
-1.504982 -5.370976 0.278081 
-1.509443 -5.353437 0.266953 
-1.517998 -5.335957 0.245911 
-1.532597 -5.318565 0.210235 
-1.545078 -5.301143 0.179693 
-1.549767 -5.283607 0.168010 
-1.554865 -5.266078 0.155333 
-1.557404 -5.248510 0.148865 
-1.556978 -5.230902 0.149563 
-1.545628 -5.213134 0.176713 
-1.538313 -5.195427 0.194097 
-1.528696 -5.177684 0.217045 
-1.511471 -5.159832 0.258423 
-1.506269 -5.142153 0.270681 
-1.509935 -5.124601 0.261485 
-1.513132 -5.107044 0.253412 
-1.503395 -5.089298 0.276655 
-1.492319 -5.071535 0.303141 
-1.507023 -5.054144 0.267212 
-1.540293 -5.037020 0.186335 
-1.539461 -5.019402 0.188015 
-1.562557 -5.002132 0.131770 
-1.586674 -4.984877 0.073056 
-1.590992 -4.967333 0.062266 
-1.598213 -4.949833 0.044457 
-1.606924 -4.932354 0.023032 
-1.609711 -4.914789 0.015954 
-1.614023 -4.897247 0.005185 
-1.634706 -4.879940 -0.045224 
-1.641508 -4.862434 -0.062020 
-1.645411 -4.844883 -0.071802 
-1.659586 -4.827484 -0.106453 
-1.671530 -4.810051 -0.135702 
-1.693357 -4.792759 -0.188884 
-1.475285 -5.563740 0.399540 
-1.414820 -5.545264 0.545605 
-1.411667 -5.527617 0.552906 
-1.423943 -5.510192 0.522861 
-1.419182 -5.492521 0.534063 
-1.425322 -5.475007 0.518857 
-1.430759 -5.457484 0.505370 
-1.442499 -5.440046 0.476587 
-1.460955 -5.422704 0.431556 
-1.480682 -5.405386 0.383465 
-1.504627 -5.388129 0.325160 
-1.518669 -5.370729 0.290838 
-1.532066 -5.353321 0.258071 
-1.538364 -5.335809 0.242500 
-1.552607 -5.318410 0.207687 
-1.558680 -5.300896 0.192655 
-1.563316 -5.283360 0.181102 
-1.566090 -5.265797 0.174054 
-1.570593 -5.248258 0.162830 
-1.571180 -5.230663 0.161076 
-1.564199 -5.212960 0.177645 
-1.559616 -5.195290 0.188419 
-1.551897 -5.177575 0.206774 
-1.537279 -5.159761 0.241838 
-1.524689 -5.141975 0.271987 
-1.520138 -5.124308 0.282675 
-1.524467 -5.106764 0.271865 
-1.496027 -5.088751 0.340387 
-1.474499 -5.070835 0.392183 
-1.492798 -5.053495 0.347547 
-1.539761 -5.036568 0.233521 
-1.543398 -5.019018 0.224383 
-1.561777 -5.001678 0.179554 
-1.583086 -4.984381 0.127638 
-1.599943 -4.967020 0.086490 
-1.605011 -4.949488 0.073888 
-1.612970 -4.931997 0.054289 
-1.618010 -4.914465 0.041759 
-1.627665 -4.897001 0.018054 
-1.637407 -4.879536 -0.005864 
-1.654823 -4.862183 -0.048362 
-1.684505 -4.845007 -0.120555 
-1.708548 -4.827749 -0.179098 
-1.727032 -4.810410 -0.224177 
-1.503344 -5.581303 0.377828 
-1.455458 -5.563009 0.493440 
-1.427481 -5.545004 0.560846 
-1.420933 -5.527307 0.576370 
-1.426231 -5.509782 0.563220 
-1.427483 -5.492197 0.559857 
-1.435141 -5.474706 0.540989 
-1.446936 -5.457273 0.512105 
-1.464840 -5.439923 0.468401 
-1.493011 -5.422723 0.399841 
-1.502882 -5.405264 0.375613 
-1.517828 -5.387877 0.339098 
-1.542530 -5.370630 0.278969 
-1.548515 -5.353114 0.264144 
-1.565351 -5.335755 0.223059 
-1.564182 -5.318135 0.225560 
-1.572441 -5.300651 0.205235 
-1.576061 -5.283100 0.196140 
-1.580833 -5.265565 0.184258 
-1.584391 -5.248014 0.175318 
-1.584255 -5.230409 0.175315 
-1.585651 -5.212825 0.171602 
-1.583738 -5.195195 0.175909 
-1.578909 -5.177522 0.187273 
-1.563208 -5.159693 0.224959 
-1.550425 -5.141903 0.255572 
-1.542475 -5.124186 0.274495 
-1.541809 -5.106571 0.275777 
-1.512644 -5.088547 0.346056 
-1.494474 -5.070681 0.389716 
-1.516068 -5.053389 0.337109 
-1.557501 -5.036381 0.236464 
-1.566534 -5.018908 0.214266 
-1.576443 -5.001446 0.189943 
-1.593691 -4.984091 0.147858 
-1.591169 -4.966450 0.153631 
-1.611897 -4.949144 0.103118 
-1.622231 -4.931688 0.077770 
-1.630518 -4.914206 0.057378 
-1.635702 -4.896675 0.044499 
-1.646734 -4.879227 0.017455 
-1.657766 -4.861782 -0.009585 
-1.681738 -4.844522 -0.067950 
-1.716888 -4.827423 -0.153384 
-1.511084 -5.598572 0.405305 
-1.427076 -5.579758 0.608377 
-1.434227 -5.562259 0.590724 
-1.434370 -5.544660 0.590060 
-1.440546 -5.527147 0.574780 
-1.442556 -5.509574 0.569587 
-1.440834 -5.491948 0.573429 
-1.452740 -5.474516 0.544269 
-1.466133 -5.457108 0.511520 
-1.497004 -5.439945 0.436421 
-1.517977 -5.422641 0.385297 
-1.523275 -5.405114 0.372136 
-1.538990 -5.387739 0.333756 
-1.557192 -5.370399 0.289368 
-1.561443 -5.352859 0.278740 
-1.573498 -5.335428 0.249235 
-1.578913 -5.317904 0.235790 
-1.585434 -5.300396 0.219669 
-1.597486 -5.282966 0.190165 
-1.604515 -5.265465 0.172816 
-1.606888 -5.247895 0.166751 
-1.604679 -5.230261 0.171765 
-1.606615 -5.212686 0.166743 
-1.604568 -5.195052 0.171375 
-1.597820 -5.177352 0.187383 
-1.584761 -5.159561 0.218674 
-1.571478 -5.141764 0.250503 
-1.564638 -5.124062 0.266730 
-1.560230 -5.106396 0.277074 
-1.555346 -5.088720 0.288570 
-1.550621 -5.071047 0.299683 
-1.557503 -5.053541 0.282690 
-1.567490 -5.036083 0.258176 
-1.573452 -5.018564 0.243414 
-1.591520 -5.001221 0.199339 
-1.593468 -4.983644 0.194294 
-1.604889 -4.966206 0.166317 
-1.620470 -4.948826 0.128262 
-1.630545 -4.931366 0.103543 
-1.650339 -4.914047 0.055283 
-1.663755 -4.896635 0.022474 
-1.667839 -4.879091 0.012255 
-1.673950 -4.861574 -0.002871 
-1.703695 -4.844397 -0.075215 
-1.744646 -4.827383 -0.174691 
-1.517328 -5.598218 0.436082 
-1.433910 -5.579413 0.637718 
-1.443939 -5.561955 0.613111 
-1.449533 -5.544435 0.599237 
-1.450464 -5.526846 0.596658 
-1.450359 -5.509243 0.596586 
-1.452267 -5.491670 0.591642 
-1.460714 -5.474189 0.570858 
-1.482321 -5.456899 0.518228 
-1.512663 -5.439728 0.444405 
-1.527391 -5.422332 0.408394 
-1.536667 -5.404864 0.385613 
-1.554005 -5.387511 0.343301 
-1.565214 -5.370071 0.315836 
-1.579165 -5.352670 0.281735 
-1.586533 -5.335174 0.263564 
-1.600927 -5.317778 0.228389 
-1.610821 -5.300319 0.204104 
-1.614422 -5.282768 0.195062 
-1.618759 -5.265226 0.184226 
-1.621515 -5.247663 0.177232 
-1.619249 -5.230027 0.182383 
-1.613091 -5.212335 0.196965 
-1.618538 -5.194811 0.183457 
-1.610670 -5.177094 0.202166 
-1.588688 -5.159174 0.255059 
-1.581129 -5.141460 0.273040 
-1.584806 -5.123911 0.263798 
-1.574432 -5.106155 0.288585 
-1.572536 -5.088526 0.292844 
-1.571674 -5.070910 0.294611 
-1.571308 -5.053299 0.295163 
-1.577951 -5.035791 0.278746 
-1.582897 -5.018259 0.266443 
-1.595615 -5.000839 0.235318 
-1.609116 -4.983429 0.202313 
-1.619230 -4.965969 0.177491 
-1.630911 -4.948534 0.148877 
-1.634462 -4.930981 0.139952 
-1.653704 -4.913652 0.093036 
-1.667250 -4.896244 0.059909 
-1.684776 -4.878891 0.017144 
-1.706873 -4.861605 -0.036685 
-1.730925 -4.844347 -0.095242 
-1.492611 -5.597419 0.541819 
-1.455280 -5.579277 0.631878 
-1.455538 -5.561680 0.630920 
-1.467716 -5.544252 0.601116 
-1.466503 -5.526634 0.603725 
-1.469879 -5.509080 0.595218 
-1.469503 -5.491474 0.595807 
-1.477303 -5.473985 0.576596 
-1.500153 -5.456712 0.520948 
-1.532372 -5.439569 0.442588 
-1.550774 -5.422227 0.397677 
-1.563051 -5.404800 0.367632 
-1.569555 -5.387292 0.351551 
-1.581495 -5.369862 0.322320 
-1.592798 -5.352423 0.294622 
-1.601742 -5.334949 0.272635 
-1.614719 -5.317534 0.240895 
-1.622179 -5.300038 0.222501 
-1.631388 -5.282569 0.199883 
-1.634480 -5.265011 0.192067 
-1.631264 -5.247361 0.199518 
-1.627159 -5.229699 0.209132 
-1.627333 -5.212097 0.208380 
-1.631466 -5.194553 0.198055 
-1.625025 -5.176858 0.213316 
-1.605213 -5.158968 0.260943 
-1.605288 -5.141365 0.260437 
-1.614429 -5.123894 0.237979 
-1.605206 -5.106157 0.259986 
-1.593990 -5.088392 0.286801 
-1.589413 -5.070721 0.297559 
-1.589119 -5.053114 0.297944 
-1.596407 -5.035614 0.279960 
-1.600292 -5.018066 0.270226 
-1.600853 -5.000471 0.268547 
-1.616112 -4.983086 0.231271 
-1.621382 -4.965557 0.218178 
-1.627815 -4.948046 0.202269 
-1.641464 -4.930637 0.168897 
-1.656382 -4.913248 0.132448 
-1.671389 -4.895861 0.095781 
-1.692980 -4.878567 0.043184 
-1.721022 -4.861366 -0.025037 
-1.499695 -5.614678 0.570888 
-1.468893 -5.596632 0.645132 
-1.458372 -5.578879 0.670284 
-1.468569 -5.561423 0.645266 
-1.478868 -5.543970 0.620001 
-1.479521 -5.526378 0.618101 
-1.488537 -5.508906 0.595946 
-1.490467 -5.491333 0.590950 
-1.494911 -5.473794 0.579854 
-1.527540 -5.456664 0.500537 
-1.546173 -5.439323 0.455070 
-1.570488 -5.422068 0.395843 
-1.582113 -5.404634 0.367371 
-1.593918 -5.387199 0.338466 
-1.598940 -5.369670 0.325979 
-1.610365 -5.352232 0.297986 
-1.623676 -5.334823 0.265427 
-1.629774 -5.317307 0.250343 
-1.634418 -5.299773 0.238764 
-1.642126 -5.282280 0.219778 
-1.652483 -5.264827 0.194374 
-1.652502 -5.247224 0.193997 
-1.654242 -5.229647 0.189467 
-1.649323 -5.211972 0.201043 
-1.648729 -5.194360 0.202156 
-1.647509 -5.176739 0.204777 
-1.644354 -5.159090 0.212082 
-1.641764 -5.141451 0.218030 
-1.637417 -5.123783 0.228223 
-1.631506 -5.106092 0.242203 
-1.624960 -5.088396 0.257719 
-1.614811 -5.070646 0.281964 
-1.605875 -5.052912 0.303270 
-1.609718 -5.035362 0.293635 
-1.615067 -5.017838 0.280363 
-1.614349 -5.000221 0.281764 
-1.618689 -4.982679 0.270930 
-1.625957 -4.965179 0.253003 
-1.636660 -4.947731 0.226754 
-1.649740 -4.930315 0.194756 
-1.659571 -4.912851 0.170634 
-1.678257 -4.895515 0.125059 
-1.700935 -4.878239 0.069821 
-1.755003 -4.861416 -0.061413 
-1.609917 -5.651029 0.350579 
-1.511835 -5.632010 0.587714 
-1.464899 -5.613732 0.701027 
-1.448517 -5.595895 0.740361 
-1.459064 -5.578445 0.714497 
-1.473717 -5.561055 0.678696 
-1.485819 -5.543627 0.649074 
-1.492216 -5.526118 0.633262 
-1.499498 -5.508620 0.615298 
-1.508366 -5.491147 0.593508 
-1.515692 -5.473651 0.575442 
-1.545843 -5.456484 0.502114 
-1.573439 -5.439275 0.434954 
-1.586485 -5.421855 0.403005 
-1.599909 -5.404447 0.370184 
-1.604588 -5.386912 0.358525 
-1.617371 -5.369493 0.327250 
-1.620470 -5.351935 0.319420 
-1.634300 -5.334532 0.285605 
-1.643927 -5.317068 0.261978 
-1.649414 -5.299545 0.248357 
-1.656284 -5.282043 0.231402 
-1.660698 -5.264502 0.220387 
-1.666956 -5.246989 0.204899 
-1.671633 -5.229454 0.193246 
-1.670195 -5.211829 0.196404 
-1.665058 -5.194154 0.208514 
-1.664383 -5.176538 0.209818 
-1.668274 -5.158993 0.200067 
-1.665905 -5.141354 0.205481 
-1.657551 -5.123631 0.225373 
-1.653097 -5.105963 0.235827 
-1.651558 -5.088335 0.239220 
-1.645891 -5.070648 0.252611 
-1.633226 -5.052864 0.282946 
-1.630568 -5.035221 0.289054 
-1.627333 -5.017570 0.296561 
-1.625126 -4.999933 0.301574 
-1.631142 -4.982416 0.286674 
-1.637171 -4.964901 0.271752 
-1.640060 -4.947338 0.264420 
-1.648384 -4.929853 0.243946 
-1.663536 -4.912466 0.206930 
-1.684956 -4.895170 0.154739 
-1.712753 -4.877968 0.087113 
-1.793192 -4.861521 -0.107973 
-1.515526 -5.649221 0.625001 
-1.468033 -5.630935 0.739653 
-1.456438 -5.613167 0.767406 
-1.464581 -5.595682 0.747363 
-1.472319 -5.578193 0.728307 
-1.485146 -5.560777 0.696922 
-1.499561 -5.543383 0.661686 
-1.503578 -5.525838 0.651642 
-1.514532 -5.508394 0.624799 
-1.524080 -5.490931 0.601356 
-1.536375 -5.473505 0.571256 
-1.562666 -5.456284 0.507276 
-1.586575 -5.439019 0.449039 
-1.599165 -5.421594 0.418204 
-1.608877 -5.404133 0.394361 
-1.616306 -5.386637 0.376047 
-1.624390 -5.369152 0.356148 
-1.633356 -5.351678 0.334115 
-1.651075 -5.334332 0.290888 
-1.656094 -5.316801 0.278408 
-1.665194 -5.299329 0.256056 
-1.667662 -5.281762 0.249743 
-1.670107 -5.264195 0.243501 
-1.682262 -5.246767 0.213739 
-1.682789 -5.229171 0.212136 
-1.685404 -5.211607 0.205481 
-1.686682 -5.194021 0.202059 
-1.686337 -5.176413 0.202566 
-1.688538 -5.158842 0.196905 
-1.687031 -5.141216 0.200227 
-1.686638 -5.123606 0.200848 
-1.681995 -5.105934 0.211761 
-1.677378 -5.088264 0.222610 
-1.670935 -5.070570 0.237876 
-1.665848 -5.052891 0.249865 
-1.660084 -5.035204 0.263489 
-1.651361 -5.017473 0.284284 
-1.646618 -4.999802 0.295435 
-1.643120 -4.982145 0.303571 
-1.645145 -4.964573 0.298339 
-1.648153 -4.947010 0.290729 
-1.652819 -4.929474 0.279102 
-1.673298 -4.912165 0.229192 
-1.696436 -4.894894 0.172839 
-1.739889 -4.877916 0.067309 
-1.538660 -5.666714 0.615216 
-1.468508 -5.648100 0.784731 
-1.462893 -5.630417 0.797996 
-1.470438 -5.612925 0.779402 
-1.481594 -5.595485 0.752063 
-1.485813 -5.577944 0.741528 
-1.496925 -5.560503 0.714297 
-1.508289 -5.543064 0.686455 
-1.519667 -5.525627 0.658581 
-1.523003 -5.508074 0.650180 
-1.532972 -5.490615 0.625719 
-1.554432 -5.473324 0.573435 
-1.582457 -5.456125 0.505254 
-1.606718 -5.438868 0.446165 
-1.615383 -5.421385 0.424831 
-1.626148 -5.403937 0.398443 
-1.627356 -5.386353 0.395195 
-1.641987 -5.368961 0.359439 
-1.653988 -5.351533 0.330057 
-1.663525 -5.334067 0.306638 
-1.670467 -5.316565 0.289505 
-1.676165 -5.299044 0.275388 
-1.677031 -5.281454 0.272961 
-1.682722 -5.263933 0.258858 
-1.691935 -5.246462 0.236219 
-1.698454 -5.228954 0.220112 
-1.699308 -5.211363 0.217709 
-1.704105 -5.193830 0.205768 
-1.703566 -5.176219 0.206746 
-1.701527 -5.158585 0.211354 
-1.707508 -5.141069 0.196544 
-1.705160 -5.123430 0.201902 
-1.702736 -5.105793 0.207436 
-1.695993 -5.088091 0.223438 
-1.690626 -5.070408 0.236101 
-1.685390 -5.052729 0.248446 
-1.686167 -5.035135 0.246237 
-1.682663 -5.017483 0.254392 
-1.682823 -4.999880 0.253676 
-1.675114 -4.982166 0.272010 
-1.671171 -4.964504 0.281227 
-1.673967 -4.946939 0.274130 
-1.673912 -4.929335 0.273928 
-1.681242 -4.911835 0.255855 
-1.693640 -4.894409 0.225505 
-1.778769 -4.878033 0.019078 
-1.584076 -5.684527 0.551470 
-1.493002 -5.665612 0.771638 
-1.474510 -5.647743 0.816091 
-1.471224 -5.630094 0.823718 
-1.485247 -5.612695 0.789444 
-1.500933 -5.595320 0.751140 
-1.498516 -5.577683 0.756660 
-1.510729 -5.560257 0.726768 
-1.522333 -5.542824 0.698343 
-1.534719 -5.525401 0.668034 
-1.543194 -5.507921 0.647192 
-1.549500 -5.490410 0.631600 
-1.569403 -5.473095 0.583085 
-1.602814 -5.455976 0.501867 
-1.622231 -5.438647 0.454503 
-1.631218 -5.421169 0.432390 
-1.637659 -5.403661 0.416468 
-1.647493 -5.386200 0.392333 
-1.659157 -5.368766 0.363764 
-1.677097 -5.351422 0.319999 
-1.676546 -5.333812 0.321008 
-1.681149 -5.316276 0.309546 
-1.682585 -5.298694 0.305732 
-1.687857 -5.281166 0.292645 
-1.695637 -5.263676 0.273482 
-1.710943 -5.246294 0.236095 
-1.716305 -5.228767 0.222789 
-1.717859 -5.211187 0.218698 
-1.726534 -5.193709 0.197360 
-1.726728 -5.176109 0.196562 
-1.726692 -5.158504 0.196323 
-1.728973 -5.140936 0.190471 
-1.728313 -5.123322 0.191740 
-1.721094 -5.105614 0.208888 
-1.719116 -5.087982 0.213349 
-1.714842 -5.070316 0.223370 
-1.706245 -5.052588 0.243852 
-1.703621 -5.034946 0.249882 
-1.707588 -5.017399 0.239944 
-1.708708 -4.999811 0.236903 
-1.694769 -4.982004 0.270318 
-1.696669 -4.964430 0.265392 
-1.700340 -4.946877 0.256172 
-1.701405 -4.929287 0.253266 
-1.693745 -4.911572 0.271483 
-1.708775 -4.894184 0.234762 
-1.509283 -5.683003 0.778442 
-1.472389 -5.664870 0.867437 
-1.477201 -5.647339 0.855463 
-1.485079 -5.629851 0.836066 
-1.496075 -5.612407 0.809123 
-1.500618 -5.594872 0.797795 
-1.523594 -5.577601 0.741839 
-1.530819 -5.560103 0.724025 
-1.542873 -5.542676 0.694508 
-1.546175 -5.525123 0.686191 
-1.555616 -5.507657 0.663006 
-1.566401 -5.490211 0.636572 
-1.600136 -5.473095 0.554575 
-1.620459 -5.455786 0.505040 
-1.637112 -5.438418 0.464375 
-1.651060 -5.421013 0.430244 
-1.650654 -5.403403 0.430898 
-1.663874 -5.385993 0.398570 
-1.674162 -5.368538 0.373329 
-1.684191 -5.351081 0.348724 
-1.687721 -5.333529 0.339849 
-1.695070 -5.316033 0.321729 
-1.698729 -5.298483 0.312548 
-1.700603 -5.280908 0.307671 
-1.713818 -5.263494 0.275361 
-1.721876 -5.246008 0.255523 
-1.732410 -5.228557 0.229692 
-1.735901 -5.211004 0.220913 
-1.743788 -5.193516 0.201486 
-1.746498 -5.175951 0.194600 
-1.738134 -5.158228 0.214513 
-1.746313 -5.140741 0.194389 
-1.743296 -5.123096 0.201358 
-1.735348 -5.105377 0.220275 
-1.735918 -5.087780 0.218567 
-1.734615 -5.070158 0.221394 
-1.729959 -5.052488 0.232337 
-1.725258 -5.034813 0.243386 
-1.730272 -5.017282 0.230921 
-1.723734 -4.999584 0.246419 
-1.716728 -4.981880 0.263050 
-1.718021 -4.964294 0.259594 
-1.719467 -4.946711 0.255763 
-1.718582 -4.929092 0.257573 
-1.716845 -4.911463 0.261450 
-1.739777 -4.894188 0.205606 
-1.527464 -5.700422 0.780643 
-1.484022 -5.682195 0.885493 
-1.484287 -5.664598 0.884523 
-1.492990 -5.647121 0.863128 
-1.505852 -5.629706 0.831661 
-1.511229 -5.612183 0.818326 
-1.522537 -5.594744 0.790620 
-1.535870 -5.577334 0.758013 
-1.551683 -5.559960 0.719403 
-1.557543 -5.542444 0.704888 
-1.561819 -5.524905 0.694212 
-1.573559 -5.507471 0.665458 
-1.592110 -5.490138 0.620220 
-1.619110 -5.472926 0.554527 
-1.641220 -5.455642 0.500669 
-1.651964 -5.438189 0.474302 
-1.656767 -5.420650 0.462322 
-1.671507 -5.403261 0.426303 
-1.680901 -5.385794 0.403239 
-1.690857 -5.368336 0.378804 
-1.696051 -5.350808 0.365904 
-1.702312 -5.333297 0.350416 
-1.708057 -5.315777 0.336180 
-1.713041 -5.298246 0.323785 
-1.719143 -5.280731 0.308687 
-1.729757 -5.263282 0.282664 
-1.736130 -5.245770 0.266905 
-1.737305 -5.228184 0.263732 
-1.741339 -5.210640 0.253637 
-1.749229 -5.193150 0.234208 
-1.752512 -5.175595 0.225931 
-1.749201 -5.157944 0.233619 
-1.753487 -5.140402 0.222913 
-1.762663 -5.122931 0.200366 
-1.755674 -5.105227 0.216959 
-1.752224 -5.087574 0.224986 
-1.748253 -5.069912 0.234272 
-1.744280 -5.052250 0.243558 
-1.740499 -5.034592 0.252384 
-1.745380 -5.017057 0.240236 
-1.741312 -4.999393 0.249761 
-1.738317 -4.981747 0.256679 
-1.739973 -4.964167 0.252341 
-1.737255 -4.946524 0.258595 
-1.737530 -4.928923 0.257597 
-1.740067 -4.911354 0.251127 
-1.764120 -4.894098 0.192563 
-1.570108 -5.718195 0.723615 
-1.510609 -5.699736 0.867340 
-1.497944 -5.681952 0.897678 
-1.494585 -5.664302 0.905481 
-1.507792 -5.646892 0.873182 
-1.522705 -5.629505 0.836749 
-1.529755 -5.612005 0.819359 
-1.541088 -5.594568 0.791596 
-1.556494 -5.577188 0.753969 
-1.570160 -5.559784 0.720563 
-1.570555 -5.542188 0.719275 
-1.578541 -5.524702 0.699620 
-1.587704 -5.507231 0.677108 
-1.602274 -5.489841 0.641507 
-1.626059 -5.472582 0.583595 
-1.655106 -5.455400 0.512942 
-1.670149 -5.438007 0.476171 
-1.678030 -5.420514 0.456733 
-1.688046 -5.403056 0.432161 
-1.698019 -5.385598 0.407683 
-1.703140 -5.368069 0.394960 
-1.708298 -5.350541 0.382150 
-1.712328 -5.332996 0.372063 
-1.720352 -5.315511 0.352305 
-1.726177 -5.297992 0.337881 
-1.730272 -5.280449 0.327639 
-1.740730 -5.262997 0.301990 
-1.747833 -5.245497 0.284468 
-1.744764 -5.227848 0.291563 
-1.748600 -5.210300 0.281957 
-1.760944 -5.192876 0.251743 
-1.765366 -5.175336 0.240707 
-1.766781 -5.157753 0.236956 
-1.769079 -5.140182 0.231059 
-1.770468 -5.122599 0.227371 
-1.768667 -5.104971 0.231397 
-1.773085 -5.087429 0.220375 
-1.766350 -5.069729 0.236348 
-1.762564 -5.052073 0.245190 
-1.755924 -5.034370 0.260934 
-1.759239 -5.016817 0.252580 
-1.758450 -4.999201 0.254165 
-1.759748 -4.981613 0.250690 
-1.757153 -4.963972 0.256644 
-1.755651 -4.946346 0.259953 
-1.755051 -4.928734 0.261072 
-1.755865 -4.911140 0.258773 
-1.780748 -4.893896 0.198203 
-1.594263 -5.735701 0.711347 
-1.515471 -5.716964 0.901784 
-1.497534 -5.699102 0.944885 
-1.510431 -5.681688 0.913339 
-1.521090 -5.664241 0.887210 
-1.524343 -5.646686 0.879010 
-1.538143 -5.629284 0.845270 
-1.544395 -5.611773 0.829798 
-1.558746 -5.594378 0.794739 
-1.568970 -5.576925 0.769656 
-1.580313 -5.559486 0.741873 
-1.585339 -5.541958 0.729374 
-1.587257 -5.524384 0.724405 
-1.602703 -5.507005 0.686684 
-1.610830 -5.489521 0.666681 
-1.630714 -5.472205 0.618222 
-1.658588 -5.455006 0.550404 
-1.682280 -5.437740 0.492701 
-1.693310 -5.420291 0.465634 
-1.694921 -5.402713 0.461404 
-1.705151 -5.385257 0.436317 
-1.709772 -5.367722 0.424797 
-1.720097 -5.350267 0.399475 
-1.728519 -5.332787 0.378755 
-1.731833 -5.315232 0.370407 
-1.737127 -5.297707 0.357256 
-1.743061 -5.280190 0.342568 
-1.748749 -5.262670 0.328473 
-1.757923 -5.245198 0.305931 
-1.761587 -5.227649 0.296734 
-1.763607 -5.210074 0.291520 
-1.770161 -5.192565 0.275320 
-1.775188 -5.175035 0.262825 
-1.773930 -5.157412 0.265537 
-1.780294 -5.139900 0.249802 
-1.779345 -5.122284 0.251773 
-1.782003 -5.104719 0.245008 
-1.787584 -5.087194 0.231170 
-1.786570 -5.069578 0.233299 
-1.785828 -5.051964 0.234759 
-1.779802 -5.034273 0.249021 
-1.779884 -5.016668 0.248490 
-1.771933 -4.998951 0.267418 
-1.768993 -4.981304 0.274201 
-1.774521 -4.963779 0.260489 
-1.770845 -4.946121 0.269064 
-1.777210 -4.928608 0.253322 
-1.785282 -4.911121 0.233454 
-1.792324 -4.893620 0.216072 
-1.876360 -4.877228 0.012282 
-1.645945 -5.753605 0.632437 
-1.534855 -5.734400 0.901070 
-1.508808 -5.716423 0.963804 
-1.513758 -5.698894 0.951501 
-1.524523 -5.681446 0.925117 
-1.530775 -5.663937 0.909651 
-1.538492 -5.646447 0.890644 
-1.553801 -5.629066 0.853252 
-1.566057 -5.611642 0.823250 
-1.576153 -5.594187 0.798492 
-1.579254 -5.576630 0.790653 
-1.584511 -5.559103 0.777601 
-1.594307 -5.541643 0.753553 
-1.607010 -5.524224 0.722475 
-1.616701 -5.506763 0.698685 
-1.623154 -5.489254 0.682734 
-1.633337 -5.471799 0.657759 
-1.663965 -5.454639 0.583280 
-1.688627 -5.437387 0.523210 
-1.699686 -5.419940 0.496094 
-1.708065 -5.402458 0.475476 
-1.717251 -5.384989 0.452913 
-1.725525 -5.367504 0.432553 
-1.732958 -5.350010 0.414228 
-1.738691 -5.332490 0.400021 
-1.747730 -5.315018 0.377808 
-1.753164 -5.297494 0.364329 
-1.760101 -5.279992 0.347210 
-1.762222 -5.262420 0.341749 
-1.768698 -5.244910 0.325739 
-1.774582 -5.227392 0.311168 
-1.779230 -5.209857 0.299585 
-1.782001 -5.192292 0.292548 
-1.785109 -5.174734 0.284697 
-1.786201 -5.157146 0.281723 
-1.784302 -5.139515 0.285995 
-1.787783 -5.121962 0.277243 
-1.791023 -5.104406 0.269066 
-1.789057 -5.086773 0.273498 
-1.797518 -5.069292 0.252687 
-1.798851 -5.051706 0.249129 
-1.798391 -5.034098 0.249912 
-1.792738 -5.016413 0.263269 
-1.791773 -4.998795 0.265279 
-1.788248 -4.981138 0.273482 
-1.791101 -4.963577 0.266243 
-1.788239 -4.945930 0.272848 
-1.795536 -4.928431 0.254848 
-1.792427 -4.910782 0.262058 
-1.796402 -4.893234 0.252096 
-1.860626 -4.876556 0.096274 
-1.566525 -5.752013 0.870613 
-1.518574 -5.733721 0.986378 
-1.523756 -5.716195 0.973508 
-1.529299 -5.698674 0.959761 
-1.545046 -5.681300 0.921320 
-1.550097 -5.663771 0.908767 
-1.554491 -5.646233 0.897800 
-1.575256 -5.628932 0.847198 
-1.583805 -5.611455 0.826174 
-1.592083 -5.593972 0.805811 
-1.592552 -5.576378 0.804350 
-1.602230 -5.558916 0.780596 
-1.616257 -5.541516 0.746310 
-1.625929 -5.524053 0.722559 
-1.636059 -5.506598 0.697712 
-1.643684 -5.489107 0.678920 
-1.650322 -5.471601 0.662528 
-1.678614 -5.454408 0.593702 
-1.698761 -5.437091 0.544574 
-1.716320 -5.419736 0.501713 
-1.719679 -5.402183 0.493254 
-1.733805 -5.384784 0.458731 
-1.744350 -5.367333 0.432868 
-1.745157 -5.349741 0.430583 
-1.746613 -5.332161 0.426736 
-1.756119 -5.314694 0.403394 
-1.772137 -5.297324 0.364285 
-1.781309 -5.279854 0.341753 
-1.774885 -5.262159 0.356979 
-1.781094 -5.244646 0.341622 
-1.781775 -5.227053 0.339645 
-1.790367 -5.209574 0.318519 
-1.790909 -5.191978 0.316873 
-1.793907 -5.174418 0.309289 
-1.797888 -5.156872 0.299328 
-1.799572 -5.139294 0.294916 
-1.799280 -5.121685 0.295302 
-1.796019 -5.104034 0.302866 
-1.799927 -5.086487 0.293076 
-1.809416 -5.069021 0.269773 
-1.806314 -5.051373 0.276956 
-1.802340 -5.033710 0.286249 
-1.805153 -5.016148 0.279117 
-1.808550 -4.998590 0.270551 
